# .PCD v0.7 - Point Cloud Data file format
VERSION 0.7
FIELDS x y z
SIZE 4 4 4
TYPE F F F
COUNT 1 1 1
WIDTH 1391
HEIGHT 1
VIEWPOINT 0 0 0 1 0 0 0
POINTS 1391
DATA ascii
-0.072283179 0.21218909 0.64634478
-0.068347491 0.21372981 0.64772737
-0.066808052 0.21650963 0.64700007
-0.064266615 0.21828993 0.64714289
-0.06540136 0.22108532 0.64599997
-0.062306903 0.22266705 0.64628792
-0.058877829 0.22344539 0.6481539
-0.061548118 0.2253253 0.64666671
-0.056737844 0.22762547 0.64710635
-0.052661445 0.22899707 0.64817655
-0.056264125 0.23242015 0.64515173
-0.052573819 0.23259097 0.6467846
-0.048608959 0.23293009 0.64809102
-0.056278452 0.23544893 0.64499998
-0.051971417 0.23756932 0.64594293
-0.047596026 0.23752877 0.64777267
-0.044221401 0.23841898 0.64899999
-0.051561445 0.24056908 0.64524996
-0.046964038 0.24273165 0.64725733
-0.043249782 0.2431913 0.64804173
-0.046738982 0.2465754 0.64526099
-0.042918324 0.24780551 0.6469999
-0.03996978 0.24889207 0.64874995
-0.045221742 0.2520456 0.64599997
-0.042315327 0.25245476 0.64632386
-0.038742028 0.25334945 0.6481716
-0.041005109 0.25625375 0.64599997
-0.038010981 0.25748146 0.64734966
-0.037604377 0.26288119 0.64674008
-0.034083143 0.26473129 0.64857143
-0.03703817 0.26695982 0.6452328
-0.03412351 0.26754624 0.64737135
-0.035035491 0.27110088 0.64700001
-0.03321252 0.27276632 0.64679319
-0.029697226 0.27465671 0.64899999
-0.03249966 0.27762774 0.64702475
-0.029216453 0.27847424 0.64840013
-0.031717293 0.28043345 0.64700001
-0.028975505 0.2828784 0.64640009
-0.030115636 0.28947049 0.64499998
-0.027036672 0.28791469 0.64670599
-0.024836687 0.28862658 0.64850003
-0.030115636 0.29037085 0.64499998
-0.026747614 0.29234353 0.64600009
-0.02421236 0.29202154 0.648
-0.026410706 0.29713559 0.64633334
-0.024041446 0.29856172 0.64700001
-0.087726124 -0.17759074 0.65299994
-0.12589398 -0.17064448 0.65200001
-0.070460357 -0.17159443 0.65100002
-0.06924627 -0.1715944 0.65100002
-0.1354277 -0.16569039 0.65399998
-0.13384213 -0.16642071 0.65399998
-0.12975055 -0.16528189 0.64999998
-0.057623878 -0.16770148 0.64999998
-0.12975055 -0.16437455 0.64999998
-0.036578201 -0.15571408 0.65299994
-0.15963639 -0.15001485 0.65200001
-0.032311469 -0.15333889 0.65285712
-0.029136876 -0.15136936 0.65000004
-0.15963639 -0.14910471 0.65200001
-0.17547809 -0.14069742 0.65100002
-0.011862844 -0.14229597 0.65000004
-0.0082388623 -0.14069743 0.65100002
-0.17912035 -0.13887995 0.65100002
-0.0083609205 -0.13857116 0.65057147
-0.0037030564 -0.13754195 0.65399998
-0.18430012 -0.13050056 0.64999998
-0.0013446631 -0.13407812 0.65142858
-0.18759248 -0.12646829 0.65259999
-0.18430012 -0.12959322 0.64999998
-0.18851504 -0.12453119 0.65200001
-0.19733061 -0.10754209 0.65200001
-0.19714902 -0.1031992 0.65139997
-0.19945852 -0.088125966 0.65200001
-0.19429077 -0.062035549 0.65200001
-0.19306649 -0.056661535 0.653
-0.19094692 -0.052022714 0.65200001
-0.18672454 -0.047327831 0.65000004
-0.18568248 -0.043062855 0.65299994
-0.18490623 -0.044000924 0.64999998
-4.403853e-05 -0.042445853 0.65399998
-0.18190786 -0.03650536 0.65120006
-0.18241069 -0.034784898 0.653
-0.00034788958 -0.033518121 0.65200001
-0.17906171 -0.010781362 0.653
-0.1778439 -0.0076821717 0.653
-0.17574763 -0.0019669214 0.65200001
-0.17075282 0.021985076 0.65149999
-0.16957854 0.028457796 0.65399998
-0.0035702065 0.027898811 0.65000004
-0.16672306 0.033122882 0.64999998
-0.0036973942 0.031452704 0.65299994
-0.0061142258 0.044684485 0.65100002
-0.0045966287 0.044684485 0.65100002
-0.16383912 0.047860187 0.653
-0.0061142258 0.045593217 0.65100002
-0.0045966287 0.045593217 0.65100002
-0.16073591 0.058279932 0.65399998
-0.010363499 0.058012594 0.65100002
-0.0088459011 0.058012601 0.65100002
-0.15826678 0.06262137 0.65324998
-0.1570769 0.065887615 0.65399998
-0.015243188 0.069630027 0.65200001
-0.01282665 0.067284733 0.6527999
-0.15531446 0.07064835 0.653
-0.1532453 0.073564112 0.653
-0.016067343 0.073594823 0.65371424
-0.014027246 0.07054016 0.65200001
-0.15114816 0.077622399 0.65285718
-0.020870786 0.079118654 0.6512
-0.018421141 0.077675104 0.65333343
-0.15036869 0.08019007 0.65399998
-0.14672153 0.081816733 0.65000004
-0.022292174 0.082611129 0.65149981
-0.14518508 0.086884834 0.65399998
-0.14326721 0.087921217 0.65266663
-0.025882689 0.087832637 0.65200001
-0.023880094 0.086707093 0.65266669
-0.13887741 0.093098164 0.65192306
-0.028706346 0.09297099 0.65399998
-0.13765623 0.095563412 0.65299994
-0.13287809 0.097913951 0.65138465
-0.12975055 0.099661067 0.64999998
-0.032874361 0.096327193 0.65200007
-0.13035665 0.1005684 0.64999998
-0.12824285 0.10279559 0.6515882
-0.12263729 0.10726088 0.65279996
-0.045641761 0.10967579 0.65200001
-0.042380851 0.1076069 0.65153146
-0.11647043 0.11149604 0.65200001
-0.11116893 0.11470547 0.653
-0.045641754 0.11058591 0.65200001
-0.044121832 0.11058591 0.65200001
-0.11116892 0.11561699 0.653
-0.10795882 0.11695683 0.65200001
-0.10065744 0.11962252 0.64999998
-0.075316668 0.11980657 0.65100002
-0.074406102 0.11980657 0.65100002
-0.060841043 0.11877707 0.65200001
-0.0596251 0.11908047 0.65200001
-0.10065744 0.12052986 0.65000004
-0.095799394 0.12241762 0.65200001
-0.092565268 0.12215946 0.65062499
-0.088131227 0.12204209 0.65000004
-0.083839841 0.1222674 0.6512
-0.075316668 0.1207153 0.65100002
-0.073510483 0.1207617 0.65238464
-0.22638001 0.13408513 0.65366668
-0.22196642 0.13354182 0.65234798
-0.21736954 0.13360251 0.65251023
-0.21297617 0.13341026 0.65321803
-0.20719488 0.13388287 0.65245724
-0.20388404 0.13417454 0.65311766
-0.19092281 0.13496542 0.65399998
-0.18939821 0.13496542 0.65399998
-0.23678903 0.13949583 0.65100002
-0.23162919 0.13828418 0.65100002
-0.22891897 0.13611503 0.65149999
-0.22006041 0.13534972 0.64999998
-0.21758302 0.1355059 0.65075004
-0.21248205 0.13621344 0.65124387
-0.20753318 0.13635859 0.65083796
-0.20254666 0.13725275 0.6518364
-0.19721146 0.13753892 0.65200007
-0.19228558 0.13766858 0.65216339
-0.18794464 0.1379551 0.65254378
-0.18109305 0.13918248 0.65237498
-0.17729692 0.13866773 0.65344167
-0.17221494 0.13768923 0.65219313
-0.16780804 0.13875416 0.65186518
-0.16469985 0.13953003 0.65399998
-0.2465519 0.14397411 0.65245444
-0.24225472 0.14252631 0.65100002
-0.23812242 0.14090161 0.6505
-0.19351074 0.14148512 0.65039998
-0.18554766 0.14123304 0.65042859
-0.18273963 0.14141628 0.65144932
-0.17731556 0.1415949 0.65124041
-0.17219405 0.14216627 0.65124238
-0.16745101 0.14249192 0.65138751
-0.1629844 0.14308648 0.65189487
-0.1576203 0.14425437 0.65207708
-0.1525546 0.14416069 0.65274996
-0.14789048 0.14397998 0.65248501
-0.14414361 0.14451484 0.65259999
-0.2553919 0.14729452 0.65200001
-0.25478393 0.14729452 0.65200001
-0.24885045 0.14533046 0.64999998
-0.17035967 0.14563291 0.64999998
-0.16766427 0.14566092 0.65012485
-0.16250765 0.14565784 0.65011096
-0.15722266 0.14585352 0.65117866
-0.15224014 0.14717107 0.65203583
-0.14774814 0.14741474 0.65107298
-0.14312105 0.1478036 0.65167296
-0.13914697 0.14952083 0.65333331
-0.26198113 0.15040064 0.65100002
-0.15165441 0.15025143 0.65166664
-0.14799055 0.15224393 0.65024978
-0.14226544 0.15284866 0.65063173
-0.1378713 0.15241928 0.65196842
-0.13412079 0.15428396 0.65179998
-0.27386054 0.1580928 0.65399998
-0.14176241 0.1562988 0.65082604
-0.13885017 0.15627825 0.65066671
-0.13208801 0.15736377 0.65164274
-0.12864427 0.15933263 0.65285003
-0.13035665 0.16045277 0.64999998
-0.12734166 0.16065753 0.65149999
-0.12214469 0.16202846 0.65241206
-0.11799854 0.163853 0.65255314
-0.11718964 0.16576028 0.65109098
-0.11273149 0.16717514 0.65158826
-0.10779325 0.16918112 0.65100002
-0.10689047 0.17195913 0.65088654
-0.10264766 0.17316216 0.65182549
-0.099084206 0.17411096 0.65192306
-0.10641545 0.17527264 0.64999998
-0.10251059 0.17533258 0.65022224
-0.096888818 0.17726196 0.65163821
-0.09293665 0.17842886 0.65324998
-0.089385062 0.17909001 0.65399998
-0.09580569 0.18178269 0.65057141
-0.092380308 0.18187058 0.65159476
-0.087627366 0.18267933 0.65216225
-0.083579078 0.18429929 0.65233338
-0.09035363 0.1867656 0.64999998
-0.087254055 0.1865008 0.65053844
-0.082850203 0.18792149 0.65247363
-0.079245098 0.18896884 0.65381807
-0.090492636 0.19432282 0.65100002
-0.081733629 0.19256154 0.65173697
-0.077497318 0.19329587 0.6537351
-0.073259875 0.19376892 0.65369231
-0.08126203 0.19704875 0.64999986
-0.077290751 0.19676749 0.65101564
-0.072725557 0.19788064 0.6521495
-0.069538787 0.19909783 0.65374994
-0.080655925 0.20128301 0.65000004
-0.077058382 0.20242129 0.65102232
-0.072415262 0.20256875 0.65254557
-0.068700537 0.20255563 0.6538077
-0.076387346 0.20608419 0.65113032
-0.07260403 0.20732346 0.65180796
-0.068970144 0.20746422 0.65269989
-0.071486555 0.21080022 0.65137488
-0.067730509 0.21277533 0.65272087
-0.064027399 0.21452986 0.65350002
-0.065400831 0.2158577 0.65200001
-0.063154906 0.21783519 0.65239531
-0.059503078 0.2195629 0.65399998
-0.061232515 0.22064459 0.6509999
-0.057404835 0.22259519 0.65271926
-0.053840749 0.22467311 0.65242857
-0.056135502 0.22588925 0.65031248
-0.052213296 0.22686969 0.65175021
-0.048543669 0.22852512 0.6516363
-0.053381134 0.23031786 0.64999998
-0.046587657 0.23211488 0.65155554
-0.043952253 0.23295243 0.65399998
-0.045588087 0.23621552 0.65125
-0.043012325 0.23834245 0.65184629
-0.046713963 0.24211326 0.64999998
-0.041554678 0.24190296 0.65100002
-0.039039426 0.2430855 0.65342855
-0.040725868 0.24678935 0.65116668
-0.037653513 0.24750143 0.65353703
-0.034418076 0.24783233 0.65359998
-0.037040684 0.25209838 0.65152556
-0.033223972 0.25223735 0.65269226
-0.035840768 0.25749817 0.65066665
-0.033451572 0.25795242 0.65270275
-0.035804044 0.26146984 0.65000004
-0.032629695 0.26255402 0.65269995
-0.029658126 0.26276016 0.65385711
-0.031655077 0.26727751 0.65116668
-0.029272966 0.26816836 0.65305543
-0.031216618 0.27217788 0.6512593
-0.02903449 0.27283195 0.65316671
-0.02708781 0.277125 0.65167177
-0.024144927 0.27838621 0.65305269
-0.026751461 0.28248098 0.65097678
-0.024346393 0.28159368 0.65266675
-0.025943542 0.28649998 0.65280014
-0.022498235 0.2880719 0.65288508
-0.018390778 0.28747395 0.65381241
-0.022292381 0.29239085 0.65124011
-0.019308886 0.29128924 0.65380001
-0.021944243 0.29736811 0.65127426
-0.017887391 0.29783109 0.65322936
-0.080665588 -0.17630601 0.65499997
-0.079444051 -0.17630601 0.65499997
-0.073365465 -0.17558268 0.65799999
-0.12685943 -0.17042458 0.65700001
-0.073365472 -0.17466417 0.65799999
-0.061494242 -0.17186327 0.65900004
-0.14085776 -0.16547911 0.65799999
-0.13738483 -0.16695714 0.65899998
-0.13267945 -0.16828465 0.65700001
-0.12685943 -0.16950747 0.65700001
-0.047217034 -0.16583906 0.65699995
-0.14085776 -0.16456062 0.65799999
-0.041766811 -0.16088659 0.65799999
-0.041766811 -0.15996808 0.65799999
-0.16841702 -0.14794582 0.65899998
-0.010427174 -0.14339055 0.65499997
-0.0072857924 -0.14208746 0.65594727
-0.0012733726 -0.14242642 0.65900004
-0.0064571789 -0.1394285 0.65499997
-0.0027925654 -0.13638078 0.65499997
-0.1979332 -0.11047509 0.65499997
-0.19770417 -0.1070464 0.65499997
-0.20068221 -0.08195138 0.65600002
-0.19854397 -0.067502126 0.65499997
-0.19670613 -0.064247556 0.65600008
-0.18943973 -0.047381409 0.6559999
-0.18419091 -0.039158255 0.65499997
-0.1835006 -0.033826564 0.65799999
-0.18043278 -0.0087207332 0.65799999
-0.17920564 -0.0071898904 0.65799999
-0.17472398 0.0047290302 0.65499997
-0.00035002385 0.0047362503 0.65600002
-0.17472398 0.0056433482 0.65499997
-0.00035002385 0.0056519648 0.65600002
-0.0012695079 0.012080354 0.65699995
-0.1702605 0.029901899 0.65899998
-0.0037087188 0.029415626 0.65499991
-0.1702605 0.0308218 0.65899998
-0.16800553 0.034596764 0.65499997
-0.0032612842 0.032730397 0.65724999
-0.16800553 0.035511084 0.65499997
-0.16637337 0.041736376 0.65699995
-0.16484272 0.049681872 0.65700001
-0.0061611864 0.047469586 0.65600008
-0.0046319328 0.047469586 0.65600008
-0.16250861 0.054406997 0.65499997
-0.0070787384 0.052963872 0.65600008
-0.16157317 0.05834781 0.65700001
-0.008913842 0.059679113 0.65600002
-0.16110544 0.060779564 0.65799999
-0.15902269 0.064049937 0.65700001
-0.0110885 0.063535079 0.65799999
-0.0091884453 0.061854932 0.65685719
-0.15766057 0.068075903 0.65675008
-0.15624681 0.072290771 0.65728575
-0.15377805 0.077102706 0.65750003
-0.15150379 0.081341721 0.65839994
-0.14830008 0.083495229 0.65509987
-0.020322831 0.081416413 0.65899998
-0.019093834 0.081416413 0.65899998
-0.14586638 0.087929629 0.65799999
-0.02573563 0.089592449 0.65600002
-0.024206374 0.089592449 0.65600002
-0.14537331 0.090002164 0.65899998
-0.14267994 0.091798328 0.65650004
-0.031193314 0.094636999 0.65499997
-0.026614083 0.092487805 0.6564815
-0.023488833 0.092641823 0.65806907
-0.13736002 0.097736768 0.65739995
-0.13451734 0.099205829 0.65700001
-0.031193314 0.095551334 0.65499997
-0.026546605 0.097032286 0.65827268
-0.024317071 0.097361386 0.65899998
-0.13241689 0.10195715 0.65700001
-0.037755195 0.10448737 0.65849996
-0.12574878 0.10668578 0.65600008
-0.12054933 0.10973816 0.65600002
-0.11993763 0.10973816 0.65600002
-0.040722311 0.10577007 0.65600002
-0.038404454 0.10559557 0.65720004
-0.12054933 0.11065388 0.65600002
-0.11818296 0.11263449 0.65736359
-0.11486863 0.11383769 0.65499997
-0.050127145 0.11414246 0.65499997
-0.047604401 0.11314864 0.65499979
-0.11291653 0.11678781 0.65874994
-0.10851568 0.11850009 0.65720004
-0.058153927 0.11970896 0.6559999
-0.053227969 0.11787006 0.65499985
-0.048600223 0.11505678 0.65499997
-0.1064802 0.12011626 0.65600002
-0.10295864 0.12115224 0.65499997
-0.098448217 0.12345027 0.65750003
-0.081498593 0.12331883 0.65680009
-0.079807915 0.12354415 0.65799999
-0.071198672 0.12115224 0.65499991
-0.067782022 0.12170716 0.65799999
-0.062934838 0.12170715 0.65799999
-0.05710597 0.12048247 0.65799999
-0.21199866 0.12988389 0.65600008
-0.20764212 0.12928809 0.65836847
-0.20305842 0.12950881 0.65875
-0.22833063 0.1344641 0.65899998
-0.22062136 0.13272922 0.65799999
-0.21722186 0.13138007 0.65700001
-0.21185774 0.13137646 0.65566665
-0.20740053 0.13151406 0.65623081
-0.20254579 0.13256511 0.65774673
-0.19738738 0.1331623 0.65712512
-0.19271471 0.13277301 0.65641952
-0.18844582 0.13329805 0.65726918
-0.18133864 0.13329412 0.65844464
-0.177303 0.13287933 0.65781057
-0.17263032 0.13371289 0.65734804
-0.16927452 0.1337997 0.65874994
-0.16209681 0.13462463 0.65828568
-0.1580376 0.1345662 0.65799999
-0.23727579 0.13913901 0.65629405
-0.23427394 0.13913384 0.65499997
-0.22833064 0.13538399 0.65899998
-0.20114045 0.13572106 0.65529996
-0.19766526 0.13580726 0.65512484
-0.19365782 0.13578132 0.65499985
-0.18633395 0.13649422 0.65550005
-0.18264112 0.13719861 0.65619403
-0.17790534 0.13639967 0.65561283
-0.17185415 0.13597037 0.65591305
-0.16732571 0.13737164 0.65708184
-0.16234781 0.13745002 0.65689373
-0.1576499 0.13754982 0.6570279
-0.15299584 0.13849907 0.65771741
-0.1496748 0.13906361 0.65899998
-0.24757886 0.14379327 0.65750003
-0.24243791 0.14194839 0.65533328
-0.23983108 0.14087245 0.65600002
-0.18541244 0.14004815 0.65499997
-0.18333033 0.14009091 0.6552
-0.16509362 0.14038342 0.65799999
-0.16204852 0.14150724 0.65581083
-0.15734586 0.14193524 0.65551722
-0.15235415 0.14203972 0.65575844
-0.14750531 0.14219438 0.65694469
-0.14431949 0.14414422 0.65700001
-0.25229162 0.14614362 0.65499997
-0.24900661 0.14514579 0.65600002
-0.14167568 0.14690261 0.65658337
-0.13853544 0.14918931 0.6566
-0.13618289 0.1514027 0.6566667
-0.13295797 0.15350564 0.65709996
-0.1297036 0.15439531 0.65899998
-0.13124859 0.15619059 0.6562413
-0.12811364 0.15782093 0.65700012
-0.12249444 0.1594311 0.65582353
-0.11839001 0.159575 0.65760005
-0.12616786 0.16016316 0.65499997
-0.12172924 0.16058557 0.65576923
-0.11769612 0.16208939 0.65690225
-0.11386199 0.1642703 0.65749997
-0.11504402 0.16559674 0.65600002
-0.11240692 0.16616821 0.65599996
-0.10792412 0.16839087 0.65647066
-0.10480461 0.16921191 0.65700001
-0.1057071 0.17083019 0.65499997
-0.10245497 0.17139465 0.65677786
-0.098354876 0.17374237 0.65666652
-0.096280709 0.17625515 0.65666664
-0.092154257 0.17709163 0.65654546
-0.087569833 0.17873077 0.65735298
-0.086737111 0.18116395 0.65717643
-0.082610525 0.18224855 0.65670848
-0.077566005 0.18339345 0.65789491
-0.072851889 0.18429567 0.65768003
-0.081359401 0.18646204 0.65566665
-0.077290401 0.18737999 0.65598381
-0.072704397 0.18765382 0.6576193
-0.068770103 0.18763186 0.65868449
-0.08005482 0.19368817 0.65499997
-0.077412896 0.19188786 0.65500021
-0.072306186 0.19192332 0.65664911
-0.068045631 0.19275174 0.65850884
-0.071168721 0.19642694 0.65566659
-0.067796513 0.19771959 0.65769845
-0.06421335 0.19919799 0.65789998
-0.066977203 0.20243321 0.65597874
-0.063341528 0.20235825 0.65746146
-0.066854887 0.20730771 0.65584087
-0.063260734 0.20794933 0.65765226
-0.0665861 0.21152446 0.65616226
-0.062485497 0.21253064 0.65734309
-0.059320979 0.21288091 0.65875
-0.061490435 0.21690372 0.65592676
-0.057838928 0.21831027 0.65724641
-0.054262329 0.21965298 0.65700001
-0.056354702 0.22153759 0.65569985
-0.052712355 0.2231193 0.65747273
-0.049204271 0.22400124 0.65899998
-0.055097289 0.22511818 0.65600002
-0.051781867 0.22554474 0.65627283
-0.047523465 0.22759944 0.65700018
-0.044494256 0.2293037 0.65750003
-0.045851763 0.23026089 0.65499997
-0.043206207 0.23249732 0.65658325
-0.04218784 0.23746637 0.65658134
-0.038733937 0.23913583 0.65785724
-0.040784385 0.2401351 0.65700001
-0.037051726 0.24222276 0.65648574
-0.034364335 0.24358757 0.65724999
-0.035774078 0.24946159 0.65499997
-0.03291579 0.24784116 0.65676802
-0.036079463 0.25098544 0.65499997
-0.030946948 0.25232401 0.65626675
-0.028718719 0.25304937 0.65779173
-0.031143742 0.25745323 0.65594876
-0.028608797 0.25764832 0.65815163
-0.030323386 0.26083103 0.65600002
-0.027383693 0.26242185 0.65721065
-0.02349074 0.26356015 0.65864712
-0.02702973 0.26721743 0.6566152
-0.022994762 0.26785576 0.65811133
-0.026714051 0.27267274 0.65574545
-0.023013758 0.2730208 0.65798283
-0.026307162 0.27536729 0.65499997
-0.02209886 0.27732274 0.65674573
-0.018621145 0.278016 0.65900016
-0.021793425 0.28227523 0.65591675
-0.017626677 0.28246513 0.65857369
-0.022360845 0.28649879 0.65676457
-0.016861619 0.2865288 0.65733343
-0.013493793 0.28814405 0.65836382
-0.02050486 0.29334888 0.65499991
-0.017295895 0.29282549 0.65633351
-0.012779524 0.29273427 0.65768522
-0.008989078 0.29331493 0.65884012
-0.016212329 0.29671648 0.65591317
-0.012703187 0.29752511 0.6568197
-0.009865649 0.29757783 0.65828568
-0.086417675 -0.18089128 0.66399997
-0.086417675 -0.17996438 0.66399997
-0.13780804 -0.1703866 0.66399997
-0.068049587 -0.17396669 0.65999997
-0.1401708 -0.1677172 0.662
-0.13754053 -0.16853866 0.66142857
-0.13394332 -0.16830452 0.66249996
-0.052514743 -0.16894932 0.662
-0.045039058 -0.16315794 0.66100001
-0.043498144 -0.16315794 0.66100007
-0.16374914 -0.15032004 0.65999997
-0.16374913 -0.14939873 0.66000003
-0.012681362 -0.14747354 0.66100001
-0.007760779 -0.14553903 0.662
-0.007760779 -0.14461493 0.662
-0.0040508737 -0.14101328 0.66100007
-0.1870853 -0.13506602 0.662
-0.0017684497 -0.13850972 0.66079998
-0.1870853 -0.13414192 0.662
-0.2014326 -0.10642573 0.66299999
-0.2020224 -0.07769493 0.66239995
-0.20151918 -0.073629819 0.66075003
-0.20065288 -0.06657587 0.66399997
-0.19605929 -0.060954127 0.66000003
-0.19511014 -0.055902325 0.662
-0.19511014 -0.054978237 0.662
-0.19296633 -0.050589282 0.66100001
-0.19296633 -0.049666591 0.66100001
-0.18741906 -0.041362341 0.66100001
-0.18559694 -0.03761458 0.66000003
-0.18331639 -0.023630358 0.66399997
-0.18260942 -0.012003873 0.662
-0.17728862 -0.00045555879 0.66000003
-0.17728862 0.00046573923 0.66000003
-0.00035269174 0.0072328667 0.66100001
-0.0012753049 0.013978109 0.65999997
-0.0031215984 0.034860864 0.66000003
-0.16892815 0.037374202 0.66100001
-0.0031215984 0.035782166 0.65999997
-0.16758458 0.044582672 0.66299999
-0.16758458 0.045508157 0.66299999
-0.0059088906 0.049443908 0.662
-0.00436565 0.049443912 0.662
-0.0065629049 0.053389303 0.6612857
-0.0043656495 0.050368 0.662
-0.16344143 0.056972016 0.66000003
-0.0068245106 0.055520512 0.66100007
-0.16202053 0.062783889 0.66299999
-0.16054156 0.066385552 0.662
-0.15992427 0.066385552 0.662
-0.012353065 0.069255985 0.65999997
-0.15745649 0.073159896 0.66200006
-0.015430222 0.072941184 0.66000003
-0.013891645 0.072941184 0.65999997
-0.15629269 0.075512215 0.66100001
-0.15467726 0.078706749 0.662
-0.016859746 0.077926256 0.661421
-0.014837238 0.07674247 0.66100001
-0.15151064 0.084378563 0.66299999
-0.020934049 0.084301077 0.66171426
-0.018606221 0.083054662 0.66349995
-0.15004753 0.086099468 0.662
-0.14839259 0.086957134 0.66150004
-0.021982314 0.087425351 0.66037494
-0.14647628 0.091920875 0.66399997
-0.14233133 0.094724305 0.662
-0.026384896 0.093209743 0.66000003
-0.022849966 0.090890445 0.66100001
-0.14124553 0.096155047 0.66125005
-0.13698226 0.099803321 0.66299999
-0.032192532 0.09949483 0.66300005
-0.026581397 0.096667834 0.66180009
-0.023226351 0.096101381 0.66299999
-0.13698226 0.10072881 0.66299999
-0.13389112 0.10412225 0.66300005
-0.035960563 0.10294884 0.66180003
-0.0334219 0.10141605 0.66165006
-0.13009724 0.10565355 0.66100001
-0.12782533 0.10766155 0.66200012
-0.12454996 0.10934433 0.66100001
-0.1228865 0.11135793 0.662
-0.11781719 0.11461109 0.66299999
-0.11670438 0.11646207 0.66300005
-0.11208382 0.11875063 0.662
-0.10868869 0.11998276 0.662
-0.050817516 0.11716349 0.66000003
-0.049586654 0.11716349 0.66000003
-0.18579303 0.12467069 0.66399997
-0.18424511 0.12467069 0.66399997
-0.10727211 0.12190492 0.66240001
-0.10246287 0.12382284 0.66166663
-0.077755921 0.12418791 0.66142857
-0.067434162 0.12207708 0.65999997
-0.060848247 0.12244699 0.662
-0.057153568 0.12166376 0.66333336
-0.054530881 0.12127212 0.66399997
-0.2160982 0.12953168 0.662
-0.21233542 0.12891924 0.66149992
-0.20765272 0.12821542 0.66033334
-0.20317306 0.12864017 0.66137499
-0.19742773 0.12914021 0.66333318
-0.19230145 0.12877405 0.66222858
-0.18735069 0.12796572 0.66283309
-0.18252881 0.12778626 0.66233832
-0.17810005 0.1290679 0.66225916
-0.17142034 0.12920703 0.66349995
-0.16736375 0.12904111 0.66313791
-0.16375844 0.12924424 0.66341168
-0.096670903 0.12628655 0.66339999
-0.093397148 0.12633389 0.66300005
-0.086727254 0.12652446 0.66399992
-0.22569807 0.13373779 0.66300005
-0.22222121 0.13244918 0.66185707
-0.21778409 0.13097239 0.66149998
-0.21236822 0.13006164 0.66000003
-0.20990647 0.13006166 0.66000003
-0.20035852 0.13097145 0.66150004
-0.19779447 0.13103965 0.66095239
-0.19247687 0.13044281 0.660375
-0.18699822 0.1318219 0.66082215
-0.18324977 0.13196738 0.66023672
-0.17749579 0.13052237 0.66077781
-0.17234273 0.13152701 0.66175979
-0.16731827 0.1326012 0.66139358
-0.16276546 0.13282374 0.66201603
-0.15772125 0.13373803 0.6626001
-0.23457088 0.13887054 0.66100001
-0.16716868 0.13587309 0.6602307
-0.16497999 0.13589655 0.66000003
-0.15574853 0.13589656 0.66000003
-0.153134 0.13692443 0.66199988
-0.14819378 0.13928567 0.662
-0.11582782 0.1395008 0.66399997
-0.11427993 0.1395008 0.66399997
-0.25018576 0.14413521 0.66399997
-0.24925703 0.14413521 0.66399997
-0.24263918 0.14123403 0.662
-0.14708109 0.14122149 0.66214281
-0.14341012 0.14392434 0.66161531
-0.11582783 0.14042768 0.66399997
-0.11427993 0.14042768 0.66399997
-0.25760242 0.14818053 0.65999997
-0.25244996 0.14574368 0.66228569
-0.24925703 0.14506209 0.66399997
-0.14121403 0.14636372 0.66163629
-0.13731903 0.14746308 0.66257101
-0.13409424 0.14752682 0.66366655
-0.13564284 0.15031083 0.66100001
-0.1324733 0.15223333 0.66223907
-0.12913978 0.15433089 0.66399997
-0.1161374 0.15463986 0.66399997
-0.1122963 0.15275174 0.6639998
-0.12725762 0.15693034 0.66157138
-0.1225282 0.15831332 0.66145259
-0.11744975 0.15749225 0.66239327
-0.11374935 0.15685861 0.66319996
-0.1165539 0.16151725 0.66180003
-0.11269505 0.16386352 0.66238463
-0.10932663 0.16483556 0.66399997
-0.10102063 0.16290027 0.66366655
-0.099035852 0.16316849 0.66349995
-0.11126263 0.16616718 0.66192311
-0.10699738 0.16743208 0.66278362
-0.10413423 0.16929187 0.66149998
-0.10236142 0.17130299 0.66233325
-0.098295182 0.17341277 0.66286367
-0.094513133 0.17489816 0.66000003
-0.09657982 0.17544779 0.66150004
-0.092460468 0.17616554 0.66144007
-0.088040411 0.17795958 0.66224998
-0.083990701 0.17924695 0.66074997
-0.081627809 0.18091689 0.66180009
-0.078308865 0.18200018 0.66349995
-0.072786666 0.18315817 0.66055006
-0.069693603 0.1843901 0.66100001
-0.070618153 0.18531278 0.66100001
-0.067093067 0.18755358 0.66215372
-0.063218296 0.18889444 0.66274208
-0.065899827 0.19210154 0.66081256
-0.062529951 0.19244491 0.66178244
-0.057357483 0.19215842 0.6639998
-0.066127941 0.19696021 0.66057146
-0.062367287 0.19753012 0.66259134
-0.059174594 0.19727638 0.66399992
-0.061217554 0.20216952 0.66099995
-0.058349203 0.20275281 0.66335988
-0.061224699 0.20740849 0.66051841
-0.058330309 0.20734008 0.66275412
-0.060356699 0.21052168 0.66000003
-0.057045188 0.21243782 0.66210896
-0.053640842 0.2139989 0.66399992
-0.056604922 0.21675861 0.66250008
-0.052416928 0.21776575 0.66285902
-0.048146281 0.21835338 0.66336828
-0.044624306 0.21983053 0.66399997
-0.051934678 0.22114035 0.66089994
-0.047256339 0.22213183 0.66132843
-0.044624306 0.22075741 0.66399997
-0.046258491 0.22688881 0.66170007
-0.042601228 0.22792381 0.66230267
-0.038896155 0.22879151 0.66346663
-0.041434132 0.23207176 0.66102505
-0.038288139 0.23282497 0.66304755
-0.034408152 0.23435168 0.66399997
-0.040724512 0.23667613 0.66100013
-0.037371937 0.23764025 0.66243041
-0.033337962 0.23768792 0.66315913
-0.035539106 0.24103853 0.662
-0.03240284 0.24254829 0.66275358
-0.029454859 0.24300258 0.66399997
-0.031137161 0.24678728 0.66135472
-0.028196665 0.24729039 0.66293472
-0.030508287 0.25044459 0.66000003
-0.027195172 0.25267804 0.66245437
-0.024155559 0.25435942 0.66300005
-0.026280923 0.25766519 0.66137141
-0.022684947 0.25760004 0.66301733
-0.019857865 0.25801808 0.66399997
-0.025911704 0.26108316 0.66049999
-0.022378087 0.26242718 0.66273433
-0.018402457 0.26336223 0.66307145
-0.014904576 0.26493877 0.66399997
-0.021595122 0.26654804 0.66033328
-0.018133575 0.26755825 0.66289794
-0.014904576 0.26586565 0.66399997
-0.020969102 0.27224869 0.65999997
-0.017910419 0.27265698 0.66262275
-0.014904576 0.27358967 0.66399997
-0.016952738 0.27687788 0.66110712
-0.013190438 0.27785623 0.66308767
-0.018507378 0.28238294 0.66000003
-0.013038672 0.28258234 0.66214734
-0.011908412 0.28680849 0.66116309
-0.0087156827 0.28809255 0.66314626
-0.010814488 0.29098171 0.66000003
-0.0073853713 0.29213911 0.66224062
-0.0033606025 0.29384479 0.66306061
-0.0073642759 0.29749694 0.66139132
-0.0029091903 0.29738736 0.66223413
-0.090850852 -0.18326032 0.66699994
-0.089295954 -0.18326032 0.667
-0.080157198 -0.17926688 0.66600001
-0.078915149 -0.17926687 0.66599995
-0.056247696 -0.17182948 0.66599995
-0.054695133 -0.17182951 0.66600001
-0.038098276 -0.16139717 0.66899997
-0.005331561 -0.15036255 0.667
-0.0037766646 -0.15036255 0.667
-0.0071357 -0.14747153 0.6665588
-0.0039839838 -0.14829351 0.66699994
-0.0050055278 -0.14372317 0.66500002
-0.0028352006 -0.14279491 0.66500002
-0.19405414 -0.12840074 0.66899997
-0.20280337 -0.10536087 0.667
-0.20280337 -0.1044298 0.667
-0.19892845 -0.062592871 0.66600001
-0.19753112 -0.059339017 0.66600001
-0.19069983 -0.045703806 0.66600001
-0.19069983 -0.044774134 0.66600001
-0.18352266 -0.025599262 0.667
-0.18352266 -0.024978548 0.667
-0.18308088 -0.0082228826 0.66719997
-0.18041287 -0.0038743112 0.667
-0.00097931759 0.016012469 0.66800004
-0.17305088 0.02707989 0.66500002
-0.1722203 0.034091096 0.66899997
-0.0025281913 0.038266309 0.66579992
-0.0025327478 0.040196303 0.667
-0.16436957 0.059260178 0.66500002
-0.006255107 0.057489935 0.66600001
-0.16293097 0.06450066 0.66799998
-0.0079629282 0.062603146 0.66599995
-0.16205652 0.066810086 0.66714287
-0.010929187 0.066266246 0.667
-0.0093742907 0.066266246 0.66699994
-0.15926628 0.0737148 0.667
-0.15747494 0.077322975 0.66599995
-0.015952544 0.079227716 0.66900009
-0.014392988 0.07891643 0.66899997
-0.15584551 0.081163347 0.667
-0.15351793 0.082776539 0.66500002
-0.017174482 0.082528323 0.66800004
-0.1515215 0.087877326 0.66850001
-0.14860447 0.089988045 0.66799998
-0.02112796 0.089274488 0.66500002
-0.019042337 0.087049089 0.66546166
-0.14745186 0.091815822 0.667
-0.14452657 0.093606442 0.66500002
-0.021175615 0.092577197 0.66649997
-0.019932633 0.092577204 0.66649997
-0.14206032 0.098541453 0.66700006
-0.031096147 0.098395571 0.66599995
-0.028283319 0.097684361 0.66591311
-0.021159731 0.095296659 0.66600001
-0.019917678 0.095296659 0.66600001
-0.14040533 0.1013291 0.66899997
-0.13760431 0.10203158 0.66750002
-0.026829291 0.10086679 0.66800004
-0.13147357 0.10770628 0.66799998
-0.12704466 0.10955165 0.66600001
-0.12603959 0.11151193 0.66659993
-0.12253565 0.11402693 0.66680008
-0.12232131 0.11747003 0.6687355
-0.11841743 0.11798517 0.66750002
-0.11414199 0.11928879 0.66500002
-0.051822592 0.1195982 0.66500002
-0.2012281 0.12436434 0.66900009
-0.19758654 0.12423154 0.66828585
-0.19213061 0.12390209 0.66842854
-0.18756753 0.12335474 0.66749084
-0.18238759 0.12338071 0.66768748
-0.17736767 0.123159 0.66786641
-0.17257774 0.1234243 0.66812497
-0.12217283 0.12235288 0.66822195
-0.11755903 0.1227052 0.66835582
-0.11293878 0.12270146 0.66870749
-0.10803262 0.12384606 0.66692859
-0.10484059 0.12454903 0.66500002
-0.075386144 0.12454902 0.66500002
-0.072754383 0.12470277 0.66711116
-0.06753996 0.12488016 0.66842854
-0.062764138 0.12456387 0.66546154
-0.058152303 0.12327935 0.66650003
-0.051822592 0.12052649 0.66500002
-0.21688017 0.12911302 0.66566664
-0.21241303 0.12800303 0.66720003
-0.2076617 0.1278365 0.66762495
-0.20193382 0.12729371 0.6659413
-0.19735101 0.12667924 0.66644454
-0.19257544 0.12661225 0.66585737
-0.18855323 0.12578672 0.66500002
-0.18144065 0.12607048 0.66650003
-0.17716156 0.12729329 0.66658932
-0.17255828 0.12731013 0.66680288
-0.16791178 0.12734327 0.66700017
-0.16258237 0.12851632 0.6660769
-0.15957725 0.12926859 0.667
-0.1260207 0.12842937 0.66899997
-0.12279529 0.12736964 0.6683616
-0.11723106 0.12738369 0.66759622
-0.11262833 0.12782602 0.66751766
-0.10733964 0.12809518 0.66814905
-0.1025413 0.1277509 0.66662973
-0.097794987 0.12878342 0.66769993
-0.092362277 0.12842718 0.66713345
-0.087724663 0.12835871 0.66749996
-0.082546711 0.12786163 0.66641206
-0.077884987 0.12809886 0.66756105
-0.072411321 0.12657127 0.66826671
-0.067035504 0.12631243 0.66859996
-0.062423501 0.12666413 0.66705704
-0.059842508 0.12728666 0.66799998
-0.22930016 0.13463682 0.66900003
-0.2189378 0.13073753 0.66500002
-0.17517418 0.13000447 0.66600001
-0.17366499 0.13065679 0.66616666
-0.16131209 0.13106793 0.66550004
-0.15738133 0.13215612 0.66725022
-0.15427734 0.13409808 0.66715389
-0.13541473 0.13432552 0.66899997
-0.13260752 0.13432549 0.66899991
-0.12773392 0.13218543 0.66899997
-0.12221045 0.13274795 0.66815776
-0.11743938 0.13232258 0.66683048
-0.11248646 0.13235776 0.66685498
-0.10725668 0.1322787 0.66653132
-0.10264006 0.13265413 0.66834384
-0.097625099 0.1326398 0.66867214
-0.092902921 0.13265143 0.66884917
-0.081454001 0.13121265 0.66900009
-0.079894446 0.13121265 0.66899997
-0.23830076 0.13971952 0.66799998
-0.23382004 0.13785434 0.66500002
-0.22930016 0.13557068 0.66900003
-0.15530135 0.13558251 0.66600001
-0.15206508 0.1370675 0.6665144
-0.14838061 0.13888963 0.66700006
-0.136623 0.13808276 0.66850007
-0.13228512 0.13766855 0.6679998
-0.12759176 0.13734144 0.66780424
-0.1223507 0.13792203 0.6672281
-0.11761997 0.13763715 0.6672433
-0.11252866 0.13768014 0.66805935
-0.10743247 0.13746727 0.66762471
-0.10246681 0.13764302 0.66807544
-0.097530901 0.13757552 0.66755199
-0.094724409 0.13754377 0.66799998
-0.24665146 0.14323464 0.667
-0.23830074 0.14065199 0.66799998
-0.14605848 0.14157879 0.66714293
-0.14240339 0.14343074 0.66771454
-0.13727906 0.14308062 0.66745001
-0.1324538 0.14261214 0.66728151
-0.12738319 0.14272325 0.66809982
-0.12251545 0.14280443 0.66717535
-0.11764801 0.14274296 0.66627091
-0.11239078 0.14261571 0.66641188
-0.10760608 0.1426671 0.6687029
-0.10247202 0.14234142 0.66661018
-0.097382866 0.14228263 0.66662502
-0.092696369 0.14293614 0.66874015
-0.089530252 0.14392127 0.66875011
-0.13708545 0.14589942 0.66500002
-0.13192317 0.14756216 0.66712511
-0.1274292 0.14740476 0.66696423
-0.12245244 0.14722022 0.66678131
-0.11751985 0.14740126 0.66691929
-0.11244873 0.14771798 0.66733313
-0.10752755 0.14744435 0.66857165
-0.10238309 0.14730732 0.66717166
-0.098085813 0.14721097 0.66781396
-0.092356987 0.14655797 0.66858619
-0.089429826 0.14562513 0.66799998
-0.13127303 0.15113904 0.66583997
-0.12735391 0.15212065 0.66570616
-0.12252084 0.1522682 0.66579193
-0.11776232 0.1522624 0.66613662
-0.11256427 0.15227641 0.66560453
-0.10763197 0.15228251 0.66586137
-0.10260876 0.15230332 0.66657543
-0.098438442 0.15184927 0.66837502
-0.091123275 0.15238018 0.66900009
-0.08956372 0.15238017 0.66900009
-0.12630869 0.15594035 0.66506666
-0.12275626 0.15619473 0.66553348
-0.11879269 0.15549162 0.66500002
-0.11236963 0.15787512 0.6655221
-0.10766464 0.1575679 0.66598529
-0.10289934 0.15750483 0.66749984
-0.097951822 0.15764284 0.66864723
-0.094866209 0.15953977 0.66900003
-0.087692238 0.15953977 0.66899997
-0.11569224 0.16248463 0.66500002
-0.11259036 0.16246632 0.66562325
-0.10761005 0.16245246 0.66539443
-0.10291328 0.16196191 0.66632742
-0.097077407 0.16227056 0.6669839
-0.094085723 0.1633807 0.66852367
-0.088302486 0.1612857 0.66899985
-0.10723238 0.16596788 0.66500002
-0.10263491 0.16741557 0.66598356
-0.097462714 0.16756213 0.66733927
-0.092774265 0.16785339 0.66863632
-0.088821985 0.16882478 0.66878575
-0.10129805 0.17102112 0.66654557
-0.097198591 0.17228323 0.66753209
-0.092921227 0.17278048 0.6677717
-0.087578639 0.1727234 0.66864699
-0.08457312 0.17417027 0.66900009
-0.095849231 0.1756043 0.66500002
-0.092099793 0.17586647 0.66663641
-0.087506123 0.176869 0.66705585
-0.083538666 0.17830969 0.66766691
-0.081546292 0.18090378 0.66719997
-0.077493258 0.18198942 0.6680001
-0.072452225 0.18375139 0.66650009
-0.069029115 0.18437304 0.66649997
-0.067042403 0.18600062 0.66614294
-0.062615544 0.18758817 0.66616231
-0.057635065 0.18905109 0.66768742
-0.05345764 0.18908747 0.66828567
-0.060230058 0.19118996 0.66539997
-0.05751216 0.19204225 0.66551185
-0.053000238 0.1925597 0.66714555
-0.049950924 0.19440392 0.66900003
-0.056903109 0.19734485 0.66576499
-0.052582696 0.19733171 0.66679686
-0.049894921 0.19729535 0.66824996
-0.056225691 0.20155898 0.66533345
-0.052709755 0.2024436 0.66706246
-0.049087167 0.20292845 0.66899997
-0.056086242 0.2080382 0.66509092
-0.053043958 0.20733304 0.66736186
-0.049950924 0.20561026 0.66900003
-0.055739705 0.21080463 0.66549999
-0.05244356 0.21241155 0.66700006
-0.049106508 0.21357827 0.66812497
-0.055233106 0.21706736 0.66500002
-0.050968975 0.21584432 0.66599995
-0.046888921 0.21698146 0.66664279
-0.044056177 0.21814787 0.66712499
-0.042956669 0.22279555 0.66698122
-0.041968558 0.22598881 0.66609085
-0.037948892 0.22822569 0.66736364
-0.036349192 0.232105 0.66553348
-0.033129618 0.23249292 0.66630787
-0.037250392 0.23532349 0.66500002
-0.031425893 0.23688 0.66581821
-0.028806217 0.23823769 0.66797048
-0.024997987 0.23954055 0.66900003
-0.027276501 0.24225646 0.6669836
-0.024983972 0.24220647 0.66862506
-0.027144682 0.24737449 0.66538733
-0.022813644 0.24771263 0.66719997
-0.019383576 0.24763401 0.66899997
-0.026127936 0.2514818 0.66600001
-0.022586171 0.25266799 0.66754395
-0.018933715 0.25367194 0.66885716
-0.021509131 0.25572041 0.6658572
-0.01812063 0.25767931 0.66738099
-0.023022808 0.26108843 0.66600001
-0.017082276 0.26216251 0.66627276
-0.014237916 0.26420039 0.66760004
-0.015885781 0.26792493 0.66619992
-0.013642113 0.26752913 0.66775656
-0.015890548 0.27147722 0.66639996
-0.013374223 0.27283508 0.66735995
-0.011686152 0.27647284 0.66665399
-0.00901559 0.27824089 0.66768181
-0.010614671 0.28280008 0.66677773
-0.0082666092 0.28261894 0.66811126
-0.0022284307 0.28436589 0.66899991
-0.010602289 0.28556982 0.66600001
-0.0072181211 0.28744772 0.66744995
-0.0026804146 0.28884879 0.66887093
-0.0053008399 0.29135641 0.66615385
-0.0020010115 0.29198852 0.66667652
-4.48391e-05 0.29791534 0.66588885
-0.085324287 -0.18221408 0.67000002
-0.083359331 -0.18270357 0.67180008
-0.066680998 -0.17686613 0.671
-0.027070275 -0.15695837 0.67399991
-0.010994729 -0.15063983 0.671
-0.0066149109 -0.15063985 0.671
-0.0053555407 -0.14854483 0.67000002
-0.002404782 -0.14795157 0.67123085
-0.00054594729 -0.14210795 0.67139989
-0.20400013 -0.11288475 0.67300004
-0.20339389 -0.10911489 0.671
-0.19555096 -0.048929695 0.67199999
-0.1927823 -0.047225311 0.67000002
-0.19149482 -0.042653508 0.67360002
-0.19019397 -0.039608061 0.67299998
-0.18639141 -0.026808761 0.67399997
-0.18615164 -0.023915062 0.67199999
-0.18329088 -0.005788052 0.67300004
-0.00067287119 0.018011214 0.67299992
-0.00067087158 0.023577608 0.671
-0.17476444 0.030896135 0.67400002
-0.0019308428 0.041872613 0.67399991
-0.16923289 0.049252748 0.67199999
-0.16785109 0.056298833 0.67400002
-0.16547315 0.061760064 0.67199999
-0.16408017 0.067588918 0.67400002
-0.010415401 0.068843365 0.67400002
-0.0088441856 0.068843365 0.67400002
-0.16178563 0.070722476 0.671
-0.011951047 0.072391279 0.67199999
-0.15892054 0.077288568 0.67000002
-0.01508415 0.076143481 0.67199999
-0.013517599 0.076143481 0.67199999
-0.15673935 0.082806252 0.67150003
-0.15404744 0.084645927 0.67000002
-0.01667548 0.084398642 0.67299998
-0.15404744 0.085581191 0.67000002
-0.017122168 0.086628959 0.67210007
-0.14838096 0.093981065 0.67242855
-0.018692164 0.092620835 0.67155564
-0.14579725 0.096280262 0.67199999
-0.14428288 0.099577501 0.67400002
-0.028826848 0.099134274 0.671
-0.02173394 0.098315142 0.67257881
-0.14428288 0.10051835 0.67400002
-0.13779993 0.10389421 0.67150003
-0.031364925 0.10271363 0.67399991
-0.028524145 0.10254119 0.67228574
-0.022670873 0.10020473 0.67400002
-0.1362126 0.10729042 0.67253327
-0.13388106 0.10842098 0.67271429
-0.13516983 0.11024036 0.67400002
-0.13147007 0.11205444 0.67340004
-0.12805966 0.11310645 0.67211109
-0.042782422 0.11400374 0.67399991
-0.19236204 0.11933515 0.67399991
-0.18890536 0.11933515 0.67400002
-0.18219918 0.11961797 0.67254543
-0.17699872 0.11901164 0.67242867
-0.17369477 0.11931809 0.67264283
-0.13633999 0.1178584 0.67343473
-0.13247782 0.11764419 0.67264313
-0.12756249 0.11765596 0.67239416
-0.12280965 0.11800343 0.67000002
-0.20650297 0.12466659 0.67400002
-0.20204414 0.12305733 0.6724999
-0.19740523 0.12205493 0.67109114
-0.19294423 0.12160787 0.67161232
-0.18781365 0.12119406 0.67303228
-0.18277436 0.12131052 0.67092311
-0.17772989 0.12098248 0.67096299
-0.17203951 0.12155976 0.67191887
-0.16891856 0.12360622 0.67250001
-0.13729726 0.1225044 0.6726737
-0.13278352 0.12252548 0.67296231
-0.12753482 0.12259923 0.67206693
-0.1249963 0.12455023 0.67000002
-0.11843635 0.12174446 0.67000002
-0.11227182 0.12464318 0.67050004
-0.055648394 0.12392673 0.67000002
-0.053600866 0.12327854 0.67105883
-0.21735887 0.12887453 0.67033339
-0.21465629 0.12848274 0.671
-0.20608322 0.12630114 0.67192298
-0.20401959 0.12536056 0.671
-0.19559371 0.12517373 0.67000002
-0.18122433 0.12517373 0.67000002
-0.17023242 0.12536056 0.671
-0.16720636 0.12606552 0.67134285
-0.16253141 0.12764043 0.67150003
-0.15897001 0.12973161 0.671
-0.13697734 0.12681633 0.67392486
-0.13231155 0.12767614 0.6734001
-0.12812282 0.1273836 0.67127281
-0.12224002 0.12851132 0.67000002
-0.11968588 0.12891476 0.67000002
-0.11145767 0.12600932 0.67030001
-0.10906501 0.12642077 0.67000002
-0.090322338 0.12922652 0.67000002
-0.089072824 0.12922652 0.67000002
-0.075544462 0.12814736 0.67000002
-0.072033785 0.12869625 0.67016
-0.06810829 0.12838848 0.67145151
-0.062259912 0.12887441 0.67181247
-0.05775772 0.1271835 0.67226684
-0.054014903 0.12573421 0.67299992
-0.22623152 0.13347822 0.671
-0.22214584 0.13140878 0.67000002
-0.21839729 0.13016178 0.67000002
-0.15694109 0.13108456 0.6724999
-0.15373328 0.13355696 0.6727308
-0.14662313 0.13328779 0.67380643
-0.14221732 0.13285573 0.67307043
-0.13761815 0.13277072 0.67316669
-0.13274775 0.13195993 0.67244256
-0.1278352 0.13272862 0.67014289
-0.12304993 0.1325599 0.67000002
-0.10125557 0.13265578 0.67000002
-0.097844258 0.13339809 0.67060006
-0.090826057 0.13262938 0.67038888
-0.087308243 0.13263871 0.67034489
-0.082596615 0.13319939 0.67043889
-0.077414393 0.13272196 0.67169821
-0.072592661 0.13164918 0.6718573
-0.06735532 0.13151652 0.67282873
-0.062863104 0.13142549 0.67315388
-0.05912305 0.13062525 0.67400002
-0.23339145 0.13702032 0.67000002
-0.15146443 0.13656087 0.67290914
-0.1472847 0.13718727 0.67197007
-0.14246011 0.13765179 0.67163527
-0.1381918 0.13676099 0.67066658
-0.13468 0.13608506 0.67000002
-0.12697272 0.1369821 0.67009091
-0.12382489 0.13608506 0.67000002
-0.098131791 0.13514981 0.67000002
-0.09227103 0.13766959 0.67074567
-0.087358437 0.13758203 0.67121893
-0.082266763 0.13744478 0.67054689
-0.077782929 0.13756156 0.6726473
-0.073892467 0.1390928 0.67399997
-0.25049698 0.14442424 0.67400002
-0.24588656 0.14200836 0.67000002
-0.24169816 0.14160173 0.67400002
-0.14603381 0.14024243 0.67049998
-0.14261174 0.14129202 0.67091429
-0.13886227 0.14119603 0.67058343
-0.12842762 0.14151137 0.67030001
-0.092073925 0.1413364 0.67047995
-0.087262474 0.14248173 0.67130029
-0.082426958 0.14270374 0.67196882
-0.078175701 0.14170477 0.67300016
-0.25049698 0.14536509 0.67400002
-0.10800292 0.1484928 0.67000002
-0.096209064 0.14803903 0.6702857
-0.092307962 0.14838152 0.6703214
-0.087318629 0.14774293 0.67200011
-0.082642943 0.14778711 0.67287117
-0.10000606 0.1541667 0.67000002
-0.096696258 0.15254837 0.67062783
-0.092622869 0.15245098 0.67100006
-0.08721029 0.15239623 0.67070949
-0.083040915 0.15217999 0.67169744
-0.10090555 0.15803418 0.67023081
-0.096914656 0.15730321 0.670439
-0.092314325 0.15739135 0.67060304
-0.087280676 0.15723434 0.67092991
-0.083004385 0.1574273 0.6726532
-0.092200406 0.16220127 0.67047989
-0.086715609 0.16311085 0.67021054
-0.083109722 0.16287485 0.67257136
-0.077568106 0.16439092 0.67357129
-0.074835196 0.16449551 0.67400002
-0.09125948 0.16570155 0.67000002
-0.087190665 0.16737579 0.67077059
-0.082375884 0.16744058 0.6714769
-0.078683332 0.16680841 0.67316002
-0.074835196 0.16543636 0.67400002
-0.091571853 0.17256013 0.67000002
-0.086735569 0.17173891 0.67044449
-0.082402796 0.17261468 0.67166668
-0.07851468 0.17361195 0.67381471
-0.085324295 0.17630112 0.67000002
-0.081867799 0.17705515 0.6711489
-0.07780993 0.17746916 0.67305475
-0.07420671 0.17923534 0.67400002
-0.081047162 0.18069814 0.67166662
-0.07750687 0.18145005 0.67262489
-0.072419494 0.18339236 0.67200011
-0.069600157 0.18433177 0.67199999
-0.066467054 0.18620785 0.67199999
-0.061720323 0.18737292 0.67080003
-0.057475541 0.18839885 0.67312497
-0.052747477 0.18893233 0.67279994
-0.048088148 0.18975733 0.67350006
-0.050693545 0.19205162 0.67057139
-0.048052222 0.19274642 0.6730001
-0.047327459 0.19751468 0.67164075
-0.043833703 0.19828807 0.67378253
-0.051275101 0.20404708 0.67000002
-0.04679168 0.20239715 0.67142606
-0.043731622 0.20274127 0.67366666
-0.05068814 0.20856644 0.67050004
-0.047291912 0.20780212 0.671673
-0.043660708 0.20768547 0.67348379
-0.05065034 0.21121739 0.67000002
-0.047003053 0.21249048 0.67160016
-0.043827504 0.21276397 0.67316669
-0.046310887 0.21558668 0.67050004
-0.042417571 0.21748793 0.67148995
-0.039325748 0.21843703 0.67400002
-0.040877853 0.22191282 0.67241669
-0.039488293 0.22190419 0.67336357
-0.033305638 0.22468905 0.67299998
-0.040450253 0.22616284 0.67180002
-0.03704875 0.226978 0.67239994
-0.032701273 0.22773932 0.67246795
-0.035343826 0.23054603 0.67000002
-0.031281643 0.23186609 0.67159528
-0.02821579 0.23359486 0.67278129
-0.030033398 0.23553407 0.67000002
-0.026894601 0.23742589 0.67173094
-0.022949729 0.23891424 0.6724999
-0.019528445 0.23944916 0.67400002
-0.022364521 0.2424144 0.67253071
-0.019511059 0.24111542 0.67339993
-0.025035352 0.24613364 0.67000002
-0.021998974 0.24648672 0.67150003
-0.01778793 0.2478577 0.67263472
-0.014240558 0.24933597 0.67360002
-0.02066206 0.25049818 0.67000002
-0.016954944 0.25221476 0.67083043
-0.01359345 0.2527006 0.67299992
-0.015838534 0.25675946 0.67079991
-0.013384291 0.25774857 0.67296773
-0.015371684 0.26174936 0.67087495
-0.013459932 0.26252666 0.67160529
-0.011130949 0.26766348 0.67215616
-0.0085607301 0.26879707 0.67337495
-0.010957401 0.27243203 0.671
-0.0073186727 0.27247247 0.67172539
-0.0027773161 0.27276635 0.67285717
-0.010297108 0.27560207 0.67040002
-0.0067925788 0.27714318 0.67060399
-0.0028903845 0.27733129 0.67255783
-0.0063977931 0.28234327 0.67011106
-0.0021046014 0.2818327 0.67127705
-0.0062281 0.28676185 0.67015791
-0.0018057916 0.2871716 0.67000002
-0.089003034 -0.18655737 0.67899996
-0.051255122 -0.17303267 0.67799997
-0.049674582 -0.17303269 0.67799997
-0.0085561862 -0.15176235 0.67600006
-0.18893868 -0.026948672 0.67749989
-0.1882239 -0.023033423 0.67747051
-0.1878137 -0.019711943 0.67799997
-0.18564284 -0.0073975008 0.67699999
-0.17528301 0.032560531 0.67599994
-0.17465267 0.032875076 0.676
-0.17226201 0.044078875 0.67900008
-0.0019423015 0.044013955 0.67799985
-0.0050883256 0.052691359 0.67599994
-0.0035124486 0.052691359 0.67600006
-0.006024926 0.05952315 0.67500001
-0.0044513806 0.05952315 0.67500001
-0.16638871 0.064109646 0.67699999
-0.0060249255 0.060465388 0.67500007
-0.0044513806 0.060465388 0.67500001
-0.16529739 0.069670022 0.67900002
-0.16466424 0.069670022 0.67900002
-0.16529739 0.07061784 0.67900002
-0.16317306 0.072271101 0.67675006
-0.16078494 0.078483976 0.67599994
-0.15912895 0.08238019 0.67699999
-0.15565689 0.088050365 0.67699999
-0.15353592 0.089493021 0.676
-0.15228586 0.091482021 0.67675
-0.14745986 0.098033078 0.6785
-0.018535806 0.096308142 0.67600006
-0.14171521 0.10317686 0.67600006
-0.030302353 0.10364751 0.67599994
-0.025694245 0.10302307 0.67500013
-0.023963343 0.10160971 0.67500007
-0.14143845 0.10774944 0.67806262
-0.13823615 0.10822376 0.67533332
-0.033602573 0.10600314 0.67899996
-0.18144265 0.11484945 0.67900002
-0.17796037 0.11484945 0.67899996
-0.14503665 0.11484945 0.67900002
-0.14177808 0.11270631 0.67776102
-0.13741791 0.11274677 0.67539257
-0.13327709 0.11308276 0.6750809
-0.04116828 0.11214272 0.67639995
-0.039093059 0.11120664 0.67759991
-0.20016235 0.11955131 0.67699999
-0.19657367 0.11909091 0.67700005
-0.19255832 0.11847301 0.67659992
-0.18717346 0.11872815 0.67670363
-0.18233535 0.11761106 0.67679262
-0.17779721 0.1168149 0.67638296
-0.17364751 0.11829127 0.67699993
-0.14503665 0.11579727 0.67900002
-0.14211293 0.11755761 0.67753321
-0.13842131 0.11720187 0.67548263
-0.13360801 0.11555481 0.67500001
-0.047095299 0.11820148 0.67567748
-0.044170067 0.11622928 0.67600006
-0.20553987 0.12377834 0.67599994
-0.20371562 0.12267946 0.67770588
-0.1976646 0.12047306 0.6758889
-0.18696798 0.1204 0.67539996
-0.17087056 0.12063289 0.67600006
-0.16837308 0.12325799 0.67660004
-0.1418913 0.12220136 0.67746156
-0.13883218 0.12076852 0.67500001
-0.1328527 0.12422339 0.67500001
-0.05132978 0.12317982 0.67637509
-0.04902564 0.1211397 0.67500013
-0.21698815 0.12866269 0.67633337
-0.21221261 0.12758429 0.67616665
-0.2090123 0.12736419 0.67500007
-0.16618796 0.12557574 0.67600006
-0.16220148 0.12738867 0.67636842
-0.15864599 0.12915519 0.67690903
-0.15052107 0.12901889 0.67874998
-0.14712003 0.12805183 0.67788464
-0.14254786 0.12806837 0.67625439
-0.13860737 0.12888972 0.67500013
-0.13379683 0.12610787 0.67500013
-0.055748969 0.12862049 0.67500001
-0.0532263 0.12746462 0.67703438
-0.22539592 0.13258557 0.67600006
-0.22161381 0.13069832 0.67600006
-0.15632628 0.13057061 0.67814285
-0.15240465 0.13208883 0.67691386
-0.14836657 0.13189258 0.67567658
-0.1427975 0.13069341 0.67500007
-0.13828143 0.13121164 0.67500007
-0.072323337 0.13428897 0.67536378
-0.067327395 0.13445596 0.67749989
-0.062263113 0.13358043 0.67684215
-0.057621937 0.1318029 0.6778
-0.054496463 0.13127834 0.67900008
-0.23867062 0.13971192 0.67699999
-0.15195069 0.13548473 0.67539996
-0.075890355 0.13678655 0.67500007
