# .PCD v0.7 - Point Cloud Data file format
VERSION 0.7
FIELDS x y z normal_x normal_y normal_z curvature
SIZE 4 4 4 4 4 4 4
TYPE F F F F F F F
COUNT 1 1 1 1 1 1 1
WIDTH 589
HEIGHT 1
VIEWPOINT 0 0 0 1 0 0 0
POINTS 589
DATA ascii
-0.092717566 0.1429383 0.66882086 -0.27158949 0.059125464 0.96059531 0.032673899
-0.089818925 0.14388633 0.66982424 -0.26401952 -0.0048479368 0.96450514 0.025408778
-0.13705257 0.14583792 0.66494054 0.26660931 -0.67205089 -0.69084519 0.076477185
-0.13175128 0.14733347 0.66659844 -0.31739089 0.41188756 0.85417306 0.029854039
-0.12744617 0.14744297 0.66708094 -0.10313645 0.29933378 0.94855791 0.024373572
-0.12244158 0.14723107 0.66685981 0.1199463 0.12555216 0.9848094 0.01721237
-0.11753147 0.14740002 0.66684151 0.1060709 0.060877889 0.99249327 0.026209213
-0.11237758 0.14772037 0.66713738 -0.17857786 0.16700831 0.96964848 0.048324086
-0.1075532 0.1475064 0.66889983 -0.068599202 0.094948009 0.99311584 0.044293452
-0.10236349 0.14732607 0.66692883 0.0044242856 -0.018051676 0.99982727 0.047603704
-0.09813688 0.14716041 0.66816282 -0.17077661 -0.1625697 0.97180575 0.0253352
-0.092455864 0.14653289 0.66903907 -0.23589376 -0.073618636 0.96898627 0.036047202
-0.089916609 0.14562285 0.6696623 -0.27564725 -0.0038318064 0.9612512 0.02412441
-0.13099149 0.15079264 0.66526985 -0.43322155 0.53142631 0.72794586 0.045064203
-0.1274755 0.15231566 0.66607547 -0.27632272 0.48426378 0.83014119 0.037798449
-0.12253101 0.15245861 0.6663121 -0.019900473 0.36882582 0.92928547 0.018626558
-0.11776851 0.15215848 0.66576749 0.022382043 0.3045778 0.95222443 0.024659242
-0.11254344 0.15223797 0.66546732 -0.20338899 0.28202951 0.93759918 0.033705655
-0.1076667 0.1523001 0.66597658 -0.20790489 0.22649696 0.95156431 0.035378862
-0.10284452 0.1523155 0.66750246 -0.19621819 0.035892073 0.97990316 0.041629497
-0.098654538 0.15171543 0.66934866 -0.25722244 -0.13752404 0.95651644 0.024172716
-0.091230378 0.15232904 0.67012995 -0.11512646 -0.043594293 0.99239379 0.022646619
-0.089778699 0.15234688 0.67023844 -0.18707442 -0.0082897265 0.98231077 0.026144626
-0.1261352 0.15549764 0.66449797 -0.32027492 0.67251599 0.66719282 0.05305412
-0.12262897 0.15579684 0.66493523 -0.13052997 0.60017514 0.78914624 0.063428447
-0.11872464 0.15525368 0.66436887 -0.080585636 0.40484083 0.91082925 0.065718427
-0.11220453 0.15774499 0.66481429 -0.22475594 0.1297539 0.9657374 0.029285029
-0.10762101 0.15753517 0.66582543 -0.26390693 0.17725419 0.94812137 0.035114855
-0.10298894 0.15760584 0.66785496 -0.27076229 0.13405363 0.95326668 0.043329395
-0.098184496 0.15782706 0.66950458 -0.30996409 0.26502725 0.91306233 0.056338232
-0.094959967 0.15961358 0.66940492 -0.21201243 0.18740098 0.95913064 0.041612197
-0.0880934 0.15960535 0.67017019 -0.30940494 0.042946525 0.94996011 0.02643317
-0.11453383 0.16098157 0.66340804 -0.44266006 0.45128018 0.77485371 0.071353555
-0.11229796 0.16220601 0.66488004 -0.42483258 0.44646889 0.78751683 0.057821065
-0.10761641 0.16246484 0.66542453 -0.1723665 0.35031453 0.9206354 0.043808494
-0.10272185 0.16175529 0.66557682 -0.21183407 0.27772123 0.93701506 0.042028692
-0.097132251 0.16232154 0.66720283 -0.34383646 0.19647844 0.91824436 0.047011156
-0.094050109 0.16336659 0.66840333 -0.28073198 0.17027736 0.94456083 0.036320832
-0.088625893 0.16132161 0.67000097 -0.29355583 0.04713225 0.95477933 0.02683248
-0.10709477 0.16560295 0.66439706 -0.29322782 0.60198098 0.74272227 0.091670439
-0.10228796 0.16709995 0.66511774 -0.46565706 0.29531267 0.83423853 0.093275398
-0.097466588 0.16756387 0.66734654 -0.46809006 0.13600092 0.87315261 0.03962747
-0.093003623 0.16790819 0.66924167 -0.30796784 0.094664216 0.94667548 0.031575885
-0.089073814 0.16893694 0.66975027 -0.26271704 0.12861963 0.95626187 0.018500499
-0.10054909 0.17048113 0.66531515 -0.55898303 0.51245165 0.65186757 0.088830538
-0.097099505 0.17214507 0.66731811 -0.42044535 0.56504118 0.70989728 0.062072456
-0.093053527 0.17296241 0.66805428 -0.31980014 0.53198367 0.78404164 0.061101399
-0.087841213 0.17297469 0.66922843 -0.37319452 0.41392884 0.83029437 0.055380452
-0.08510527 0.1747102 0.66980785 -0.48083964 0.41852823 0.77047217 0.070574597
-0.095470347 0.17482992 0.66458035 0.40357143 -0.78525585 -0.46957782 0.052521911
-0.092061684 0.17580853 0.66657376 -0.35424262 0.80835807 0.47018015 0.051545069
-0.087291442 0.17651008 0.66682667 0.42959929 -0.69733381 -0.57373339 0.069901697
-0.083818942 0.17869301 0.66793668 0.52429754 -0.71258509 -0.46619162 0.059077978
-0.081533462 0.18088582 0.6671924 0.48611197 -0.85463661 -0.1824594 0.047571141
-0.077628702 0.18228993 0.66807765 0.3934398 -0.89730817 -0.20010795 0.031415656
-0.072242513 0.1832346 0.66640127 0.39307997 -0.90587908 -0.1577062 0.017376801
-0.06917233 0.18469331 0.666538 0.41451526 -0.90649158 -0.080313012 0.0098318635
-0.066871934 0.18574452 0.66607809 0.49156487 -0.84645402 -0.2046449 0.030430458
-0.062821656 0.18800117 0.66632372 0.43453038 -0.81778485 -0.37737426 0.034090228
-0.057622246 0.18902963 0.66767126 0.39955589 -0.77994376 -0.48170826 0.070212506
-0.053969052 0.18977791 0.6690073 -0.40337026 0.77965891 0.47898275 0.043656677
-0.059723958 0.19066216 0.6645624 -0.45776674 0.5415917 0.70507306 0.054347306
-0.057353832 0.19189952 0.66526455 -0.46164066 0.45037112 0.76423413 0.049505748
-0.053086597 0.1926192 0.6672672 -0.49595824 0.46355087 0.73426563 0.049420904
-0.050094146 0.19446106 0.66914856 -0.63935983 0.29309204 0.71085584 0.029659856
-0.056462623 0.19725095 0.66504902 -0.50768417 0.091497026 0.85667092 0.017032899
-0.05262211 0.19734 0.66685736 -0.53960067 0.085239731 0.83759493 0.014971052
-0.050098419 0.19734992 0.66849762 -0.59975725 0.11214112 0.79228503 0.023248404
-0.056186542 0.20155632 0.66527325 -0.54028338 0.041620355 0.84045321 0.0089581907
-0.052843753 0.20243995 0.66725433 -0.56252712 -0.015445297 0.82663459 0.0079709059
-0.049527831 0.20287749 0.66962272 -0.57979816 -0.073021539 0.81148136 0.0068032793
-0.056019135 0.2080249 0.66501302 -0.65688801 0.12080637 0.74424726 0.013890373
-0.053309985 0.20738183 0.66769218 -0.62060034 0.052202098 0.7823875 0.016251761
-0.050325524 0.20560168 0.66953224 -0.5731951 -0.017860375 0.8192243 0.010492407
-0.055350911 0.21069777 0.66506809 -0.65991986 0.2115507 0.72093832 0.015964299
-0.052471209 0.21242496 0.667036 -0.57055706 0.34049273 0.74734819 0.031805951
-0.049377412 0.21382356 0.66855168 -0.51088285 0.46360874 0.7239238 0.032146763
-0.054135859 0.21609513 0.66381246 -0.53113133 0.53408557 0.65776294 0.02670126
-0.050826661 0.21567869 0.66578639 -0.44672361 0.54257262 0.71137398 0.029026665
-0.046779156 0.21685615 0.66651404 -0.52789044 0.60927373 0.59170699 0.032147571
-0.044396009 0.21839593 0.66738331 0.67055333 -0.51995683 -0.52915323 0.026165193
-0.042694472 0.2226347 0.66681248 0.75307542 -0.44460589 -0.48497736 0.023908423
-0.041735042 0.22583802 0.66594654 0.74435985 -0.4721038 -0.47227794 0.020885237
-0.038300686 0.22858442 0.66768956 0.61050004 -0.60056353 -0.51634598 0.026996518
-0.036217663 0.23198596 0.66539729 -0.57609999 0.51331687 0.6360932 0.032090671
-0.033782527 0.23301874 0.6669544 0.6177721 -0.51145053 -0.59730726 0.021831233
-0.036275532 0.23463409 0.6639362 -0.60316825 0.43476945 0.6687029 0.017134594
-0.031407792 0.23686467 0.66579765 -0.56430256 0.46425503 0.68266386 0.017241215
-0.028531805 0.23805968 0.66769731 0.64865881 -0.45054641 -0.61339194 0.020286508
-0.025760302 0.24008484 0.66974568 0.64423484 -0.46266979 -0.60901403 0.028486356
-0.027199768 0.24221188 0.66689849 -0.63703728 0.36587429 0.67846847 0.019329676
-0.025221447 0.2423505 0.66888094 -0.63872534 0.38439602 0.66653556 0.024516126
-0.027059052 0.24733011 0.66530252 0.67461526 -0.33871576 -0.65587032 0.01891301
-0.023738962 0.24818835 0.66818935 -0.63341069 0.33706963 0.696545 0.020803729
-0.020580115 0.248293 0.67043304 -0.58666682 0.35043487 0.73008043 0.020741038
-0.025454769 0.25109625 0.66531569 -0.64532936 0.38291916 0.66100144 0.01874066
-0.022055753 0.25236848 0.66691273 -0.59585017 0.35946912 0.71815354 0.028021719
-0.018847704 0.2536259 0.66875011 -0.59639663 0.30546215 0.7422964 0.028275967
-0.021469757 0.25570163 0.66581047 -0.59967452 0.31561413 0.73537624 0.026462745
-0.018476892 0.25789914 0.66775835 -0.64959311 0.35854128 0.67043042 0.030853806
-0.021250583 0.25995395 0.66400623 -0.60842776 0.37689263 0.6984036 0.026459726
-0.016760971 0.26200652 0.66596228 0.6985594 -0.32377708 -0.63810909 0.036777612
-0.014449598 0.26428267 0.66776341 0.76101786 -0.2887322 -0.58093506 0.033403948
-0.015007635 0.26756805 0.66538233 0.73256844 -0.24193601 -0.63624716 0.038120843
-0.013749295 0.26756123 0.6678353 0.80154872 -0.23835823 -0.54836577 0.025075881
-0.014983385 0.27122718 0.66559541 0.73937994 -0.22049342 -0.63616031 0.02178588
-0.013567865 0.27289248 0.66752881 0.71544325 -0.30063471 -0.63068193 0.024047818
-0.011823923 0.27652663 0.66678721 0.69894117 -0.28892246 -0.654221 0.012150855
-0.0095514152 0.2784698 0.66840774 -0.61560714 0.29510653 0.73071194 0.024848022
-0.010426028 0.28271273 0.66657436 -0.74821967 0.27193096 0.60516185 0.036279503
-0.0084851682 0.28272596 0.66837192 -0.60198754 0.27946648 0.74800366 0.026160698
-0.0031995072 0.28498217 0.67041647 -0.47798672 0.37659043 0.79354167 0.023979314
-0.010182591 0.28535476 0.6655888 0.70959556 -0.3337923 -0.62052947 0.023085956
-0.0072581028 0.28747666 0.66749775 -0.52381295 0.431918 0.73421174 0.028374502
-0.0026701873 0.28883964 0.66885549 -0.31370258 0.3719396 0.87364274 0.029880922
-0.0049494081 0.29108152 0.66574889 -0.52547246 0.47092545 0.70859569 0.022300579
-0.0020639962 0.29204193 0.66676354 -0.43079787 0.43775555 0.78916615 0.034112457
-7.0297727e-05 0.29793954 0.66592824 -0.93927532 0.010053168 0.34301716 0.030961871
-0.085322551 -0.18221933 0.66999793 -0.49107936 -0.74088901 0.45817524 0.0043005301
-0.083418094 -0.18253006 0.67185748 0.2899414 -0.91020769 -0.29572952 0.0019873811
-0.010988811 -0.15066528 0.670995 -0.11939918 -0.65445083 -0.74661767 0.069250412
-0.0065852972 -0.15088105 0.67086983 0.39190525 -0.9109351 -0.12887025 0.11065086
-0.0044749086 -0.14952366 0.66948944 0.4988929 -0.8029052 -0.32626536 0.088562615
-0.0023672031 -0.14798558 0.6712237 0.73933768 -0.58221328 -0.3382417 0.10262377
-0.00049069442 -0.14213051 0.67136943 0.81648123 -0.53733265 0.2112629 0.074633531
-0.20400013 -0.11288475 0.67300004 0.9867506 -0.16211519 -0.0064723538 0
-0.2035751 -0.10912834 0.67094731 0.95781904 0.071088366 0.27844051 0.00050821691
-0.19534594 -0.049070571 0.6720717 0.79194456 -0.54413635 0.27701882 0.0047646565
-0.1927284 -0.047259424 0.67001593 0.75996161 -0.55792534 0.33343312 0.0041337684
-0.19149482 -0.042653508 0.67360002 0.87202662 -0.48804972 0.037107956 0.0047663618
-0.19013742 -0.039632939 0.67301512 0.88909233 -0.39111701 0.23778629 0.0010149337
-0.18658409 -0.026820973 0.6739251 0.84860992 0.32393172 0.41824564 0.0089327022
-0.18607265 -0.023920286 0.67203248 0.91317767 0.17751528 0.36687168 0.0047945296
-0.18336864 -0.0057414216 0.67297578 0.82841426 -0.49677131 0.25874326 6.0860053e-05
-0.00071287237 0.018012078 0.67300153 0.99898028 -0.021604711 -0.039644431 1.4775088e-05
-0.00067191315 0.023577631 0.67100006 0.99898046 -0.021610521 -0.039636537 2.1032341e-05
-0.1748001 0.030905098 0.67398906 0.92199826 -0.25825003 0.28848931 0.00061716366
-0.0020367329 0.041861568 0.67401034 0.98983854 0.10326276 -0.097757354 0.00017199376
-0.1691297 0.049226977 0.67202783 0.93855512 -0.23437798 0.2533403 6.8104921e-05
-0.16780017 0.056283418 0.67401677 0.91283399 -0.27633542 0.30062082 2.8672022e-05
-0.1654502 0.061751753 0.6720075 0.90270317 -0.31807163 0.28975409 0.00054945232
-0.16405214 0.067578346 0.67401016 0.88513243 -0.33220959 0.3258487 0.0012198385
-0.0096979709 0.069203541 0.6738565 0.85418665 0.33272764 -0.3995716 0.0075732484
-0.0093832863 0.068570033 0.67410958 0.87596077 0.39906228 -0.27100182 0.0079350974
-0.16180171 0.070728548 0.67099422 0.88741904 -0.33614236 0.31542942 0.00075978617
-0.011885318 0.072422422 0.67198688 0.72997993 0.61486977 0.29843661 0.014465568
-0.15901572 0.077336609 0.66996306 0.8545348 -0.39411241 0.33829823 0.0022726809
-0.014548835 0.076382972 0.67188865 0.72560948 0.49814153 -0.47470611 0.011516426
-0.014058811 0.075901352 0.67211258 0.67792743 0.41789851 -0.60479355 0.011516426
-0.15662077 0.08272934 0.67155147 0.79064536 -0.50623828 0.3443875 0.0012068306
-0.1543581 0.08486741 0.66985732 0.75076336 -0.55789304 0.35370857 0.0019137022
-0.016634606 0.0844106 0.67298907 0.96716148 0.24006337 -0.083475828 0.0079857754
-0.15392478 0.085492082 0.67005658 0.74960881 -0.56302452 0.3479799 0.0019379107
-0.017262487 0.086582154 0.67214686 0.95853853 0.23072945 -0.16723563 0.0079307565
-0.14817914 0.093819141 0.67252386 0.72898394 -0.59021872 0.34673372 0.0013770973
-0.018722476 0.092610702 0.67156273 0.88259035 0.31734437 -0.34688151 0.016984839
-0.14599241 0.096439861 0.67190963 0.73115194 -0.59186268 0.33928666 0.0018841899
-0.14429742 0.099589981 0.6739912 0.71865696 -0.6041559 0.34427866 0.0071192496
-0.02833776 0.10042118 0.67039019 -0.20540883 -0.8759262 0.43653244 0.020282872
-0.021582527 0.098502353 0.67248791 -0.67896605 -0.65507174 0.33149078 0.021185815
-0.14386784 0.10017746 0.67426211 0.71684086 -0.5941174 0.36491597 0.007231161
-0.13788836 0.10397631 0.67143524 0.61390948 -0.61747718 0.49176934 0.014146977
-0.031368822 0.10269559 0.67400897 0.072046474 -0.85961407 0.50583887 0.015093162
-0.028707782 0.10192068 0.67261189 -0.024039838 -0.8474502 0.53033036 0.022953384
-0.022700157 0.10016047 0.67402017 -0.59090525 -0.73082542 0.34165069 0.026265418
-0.13602372 0.10711252 0.67276585 0.57558566 -0.54303545 0.61140305 0.027887272
-0.13397063 0.10847892 0.67260534 0.55488646 -0.5014807 0.6637907 0.043178666
-0.13500173 0.11016868 0.67428488 0.51092815 -0.3343125 0.79195178 0.040461641
-0.13143861 0.11203871 0.67344844 0.46716559 -0.32030055 0.82411402 0.048934314
-0.12819725 0.11319498 0.67188883 0.52596587 -0.38776264 0.75696766 0.035496555
-0.042834051 0.11395635 0.67402631 0.23516916 0.86203647 0.4489862 0.0036728519
-0.1923189 0.11987059 0.67429686 -0.054949623 -0.87565821 -0.47979504 0.011922547
-0.18885063 0.1198479 0.67427891 -0.085005336 -0.87680167 -0.47327888 0.0091656409
-0.18216391 0.11999834 0.67283511 -0.094635434 -0.79681069 -0.59677207 0.017344829
-0.17703566 0.11917412 0.67254978 0.11564972 -0.80398774 -0.58329141 0.028995577
-0.17382257 0.11966445 0.67287558 0.39187011 -0.78551334 -0.47896412 0.039790828
-0.13604753 0.11787281 0.67425644 0.32818452 0.04388503 0.94359368 0.020449251
-0.13226153 0.11763412 0.6735276 0.25017869 -0.0086546261 0.96816099 0.021547403
-0.12766702 0.11767092 0.67220408 0.47036025 -0.090915747 0.87777877 0.027466001
-0.12296848 0.1180703 0.66975141 0.50712448 -0.25701296 0.82265979 0.04746566
-0.20628971 0.12512974 0.67412984 -0.43234885 -0.8720485 -0.22935972 0.015203904
-0.20202702 0.12310066 0.67252171 -0.36909825 -0.83701313 -0.40394986 0.017909572
-0.19729032 0.12246414 0.67135084 -0.18174851 -0.81341684 -0.55255818 0.012196118
-0.19293861 0.12165871 0.67164439 -0.092236392 -0.83709204 -0.53923035 0.0089328727
-0.1878477 0.12065233 0.67271847 -0.037011415 -0.86677504 -0.49732408 0.016075386
-0.18276559 0.12151254 0.67106396 -0.026314981 -0.81340283 -0.58110529 0.026406443
-0.1776581 0.12062707 0.67063808 0.033252511 -0.74168563 -0.66992295 0.027344171
-0.17201747 0.12152414 0.6718955 0.46484807 -0.74554831 -0.47757092 0.035213891
-0.16908997 0.12386644 0.67261469 0.51113564 -0.77695996 -0.36752349 0.02362564
-0.13673639 0.12252097 0.67407113 0.34260052 -0.002300937 0.93947834 0.028705725
-0.13259846 0.12257458 0.67351753 0.26452261 0.059937678 0.96251506 0.01932721
-0.12774022 0.12256567 0.67151922 0.37113762 0.055905946 0.92689341 0.02157535
-0.12497341 0.12455551 0.67006177 0.32552642 0.081912354 0.94197822 0.019507932
-0.11869111 0.12210146 0.66874641 0.2429264 -0.24424867 0.93879145 0.056097049
-0.11257046 0.124786 0.66923499 0.2638078 -0.24558164 0.93278891 0.079503447
-0.05546112 0.12420763 0.66983634 -0.5208202 -0.73827845 0.42859221 0.015233758
-0.053574499 0.12330636 0.67104393 -0.5981161 -0.7125448 0.36679289 0.012132457
-0.21726277 0.12917964 0.67035437 -0.35805786 -0.93008822 -0.082039304 0.0042664981
-0.21465936 0.12847272 0.67099917 -0.28785938 -0.95439804 -0.079128847 0.0056912675
-0.20622887 0.12591758 0.67183 -0.37691379 -0.88168389 -0.28384769 0.014025357
-0.20410044 0.12513891 0.67089522 -0.31728017 -0.87330163 -0.36969927 0.023624504
-0.19579929 0.12404519 0.66919303 -0.14408207 -0.79835325 -0.58469862 0.0064157667
-0.18106763 0.12346404 0.66855913 0.043440469 -0.7569173 -0.65206528 0.034135129
-0.16981548 0.12458085 0.6704672 0.36474007 -0.78745925 -0.49686274 0.052079998
-0.16710141 0.12582675 0.67123336 0.45058995 -0.82878602 -0.33178672 0.046985026
-0.1625485 0.12767448 0.67150778 0.43775454 -0.87960064 -0.18620867 0.0092133209
-0.15897886 0.12974617 0.67100364 0.5232088 -0.82977468 -0.19423322 0.0085533885
-0.13662967 0.12699525 0.67474651 0.35542563 0.20019245 0.91301459 0.043594357
-0.13226789 0.12771019 0.6735214 0.33405113 0.17388861 0.92637604 0.031798895
-0.12822354 0.12734199 0.67097968 0.34778145 0.16037267 0.92375791 0.025491526
-0.1224523 0.12841973 0.66913503 0.23240322 0.090020545 0.96844465 0.018739851
-0.11984575 0.1287441 0.6686666 0.13024892 0.10772416 0.98561186 0.022509689
-0.11166764 0.12609796 0.66934329 0.22254023 -0.11417563 0.96821475 0.080206238
-0.1092449 0.12669235 0.66908664 0.1009416 -0.053019863 0.9934786 0.083830781
-0.090235464 0.12974803 0.66913044 -0.046233796 -0.60109437 0.79783958 0.040494982
-0.08904586 0.12973967 0.66920555 -0.012045344 -0.61637753 0.78735864 0.029293448
-0.075353786 0.12865762 0.6694392 -0.25272933 -0.65480071 0.71229482 0.0089690201
-0.072063468 0.12860531 0.67026991 -0.19345957 -0.62606424 0.7553919 0.0067282221
-0.068093129 0.1288695 0.67100424 -0.050851408 -0.68860477 0.72335166 0.011077092
-0.062137742 0.12934396 0.67141658 -0.19511338 -0.75049758 0.63141441 0.020160843
-0.057458598 0.12756956 0.67195332 -0.50060642 -0.67311454 0.54434365 0.011068969
-0.054280892 0.12541875 0.67320502 -0.61365724 -0.66498029 0.42570651 0.01668299
-0.22625917 0.13341899 0.67099446 -0.43430951 -0.89790452 -0.071712501 0.0013315817
-0.22213593 0.13143028 0.67000222 -0.41906115 -0.90420455 -0.082473785 0.0018204774
-0.21855348 0.12978527 0.66996902 -0.3758305 -0.92295313 -0.083120383 0.0023518659
-0.15706539 0.13127062 0.67257684 0.52290922 -0.80401963 -0.28305182 0.034806646
-0.15410869 0.13417585 0.67302573 0.42463452 -0.80112785 -0.42175788 0.046173763
-0.14657772 0.13369207 0.6743322 0.087236837 0.59055024 0.80227184 0.042555381
-0.1421053 0.13308769 0.6735419 0.19796988 0.45464474 0.86839283 0.015367202
-0.13772444 0.13260099 0.67282557 0.28491023 0.43037805 0.85650504 0.015644358
-0.13297234 0.13165639 0.6717124 0.29448062 0.39057475 0.87219983 0.025554838
-0.12791105 0.13264056 0.66962886 0.15044914 0.20250982 0.96765429 0.034575149
-0.12317065 0.13246788 0.66930676 0.18881893 0.11997394 0.97465569 0.024853477
-0.10118808 0.13260438 0.66896504 -0.038978022 -0.043748353 0.9982819 0.03546609
-0.097613275 0.13344228 0.6691106 -0.11869526 -0.11546128 0.98619479 0.038578633
-0.090823665 0.13263904 0.67035472 -0.089711525 -0.28755596 0.95355302 0.039896607
-0.087328851 0.13257796 0.67053246 -0.062255938 -0.38268566 0.92177868 0.036784425
-0.082563102 0.13338213 0.66991675 -0.12860286 -0.38152489 0.9153688 0.029781008
-0.077331364 0.13286176 0.67142117 -0.33277354 -0.43470177 0.83683699 0.025103638
-0.072723009 0.13135062 0.67229432 -0.25992459 -0.54338241 0.79823226 0.015513658
-0.067396656 0.13109152 0.67328 -0.11461276 -0.67208892 0.73154658 0.013045664
-0.062967248 0.13103122 0.67351478 -0.21127583 -0.74691254 0.63046348 0.019713031
-0.059237894 0.13038038 0.67419344 -0.38668454 -0.73220974 0.56066382 0.016365379
-0.2334123 0.13698374 0.66999811 -0.48454529 -0.86750394 -0.11248467 0.0027710525
-0.15119113 0.13592093 0.67249215 0.29552704 -0.78295195 -0.54740298 0.057942007
-0.14733903 0.13738799 0.67219079 -0.19841497 0.70138001 0.68461496 0.06580583
-0.14245588 0.13767062 0.67166597 0.084878676 0.52720916 0.84548569 0.033872068
-0.13817604 0.13679913 0.67073733 0.25809181 0.42691007 0.86668128 0.021124575
-0.13479511 0.13588737 0.66950852 0.20295671 0.34167507 0.91764194 0.029860877
-0.12705371 0.13679606 0.66913462 0.091121562 0.17151625 0.98095822 0.02343527
-0.12398499 0.13593286 0.66891783 0.16458189 0.12113789 0.9788965 0.021458525
-0.097997688 0.13514069 0.6691069 -0.14521331 0.028188845 0.98899871 0.03171061
-0.092129707 0.13763052 0.67001981 -0.26969963 0.077480726 0.9598223 0.029369265
-0.087365121 0.13758041 0.6712572 -0.16301848 -0.039126508 0.98584688 0.024761938
-0.082478702 0.13728911 0.67132872 -0.20380248 -0.18273918 0.96180606 0.027506333
-0.077853322 0.13750106 0.67282903 -0.38016352 -0.25932345 0.8878215 0.019108433
-0.074399136 0.13881524 0.67490798 -0.46348387 -0.25286195 0.84926057 0.015650012
-0.25034606 0.14480321 0.67397171 -0.36906084 -0.92681986 0.069274925 0.0098606758
-0.24573797 0.14239076 0.66999286 -0.37046972 -0.92805451 0.038301837 0.0056255069
-0.24169008 0.14162305 0.67399967 -0.68942261 -0.3545545 0.63165462 0.005481611
-0.1459786 0.13999379 0.67033416 0.22900808 -0.74097437 -0.63127828 0.074313283
-0.14255495 0.14089848 0.67049921 -0.088234685 0.63317591 0.7689622 0.071832195
-0.13909066 0.14072783 0.66961628 0.15557709 0.50856704 0.84685022 0.026554268
-0.12844828 0.14118895 0.66857141 0.031343985 0.18032809 0.98310697 0.01689993
-0.091773346 0.14128554 0.66916084 -0.24922247 0.019768033 0.96824449 0.026799787
-0.087127253 0.14249387 0.6708045 -0.27547798 -0.034758613 0.96067882 0.020093551
-0.08248204 0.14268184 0.67210883 -0.37670553 -0.14051782 0.91561329 0.023235433
-0.078346543 0.14160389 0.67338508 -0.40248895 -0.24582566 0.88180065 0.0084939441
-0.2506679 0.14493588 0.67403209 -0.36906084 -0.92681986 0.069274925 0.0098606758
-0.10764337 0.14830881 0.66826212 -0.13102765 0.088459931 0.98742419 0.048430841
-0.095953196 0.14820307 0.66910934 -0.20587254 -0.14352734 0.96799606 0.026285995
-0.092159346 0.1484827 0.66948819 -0.17804399 -0.10666184 0.97822469 0.033516757
-0.086723715 0.14780429 0.67046523 -0.37188137 -0.032577876 0.92770845 0.035169337
-0.082866766 0.1477436 0.67325747 -0.50028348 -0.12754233 0.85641658 0.015234694
-0.099814147 0.15409771 0.66913301 -0.24105425 0.041904502 0.96960658 0.032173868
-0.096580848 0.15261102 0.66999251 -0.18785277 -0.088730156 0.97818112 0.026818004
-0.09251415 0.15251769 0.67002416 -0.10323891 -0.05929001 0.99288791 0.022196839
-0.087135866 0.15239646 0.67053556 -0.33170342 0.0089896778 0.9433409 0.037674516
-0.08368542 0.15211774 0.67276973 -0.52921194 -0.022938011 0.84817958 0.022007434
-0.10036467 0.15759191 0.66879052 -0.33183333 0.20933984 0.91981709 0.039841317
-0.096819207 0.15720499 0.67002225 -0.22641547 0.19112673 0.95509505 0.044837695
-0.092216596 0.15733068 0.66976273 -0.10880453 0.072964706 0.9913817 0.023696102
-0.086989805 0.15721889 0.67014825 -0.34839872 0.036774352 0.93662477 0.031863563
-0.083235405 0.15745164 0.67300022 -0.5680781 0.079025857 0.81917167 0.024569359
-0.091919735 0.1620432 0.66941786 -0.24087837 0.12046614 0.96305013 0.038388651
-0.086782858 0.16313927 0.67039496 -0.31272182 0.11066581 0.94337595 0.018846372
-0.082984477 0.16284177 0.67229265 -0.43950987 0.13211717 0.88846844 0.028924437
-0.078032374 0.16453576 0.67431986 -0.52321208 0.16840561 0.8353973 0.038485676
-0.075922541 0.16474123 0.67546284 -0.58852428 0.1169778 0.79997212 0.038381152
-0.091070607 0.16565444 0.66929024 -0.24956763 0.060463507 0.96646786 0.014010053
-0.086955711 0.16731752 0.67018318 -0.32443574 0.066886716 0.94353992 0.02729308
-0.082787536 0.1675051 0.67231691 -0.44043717 0.05528247 0.89607978 0.024551461
-0.078809246 0.1668112 0.67339462 -0.47919187 0.079840221 0.8740713 0.035482679
-0.075777546 0.16558507 0.67522967 -0.60387236 0.11636081 0.78854191 0.049959973
-0.091085836 0.17212324 0.66893685 -0.30545986 0.35733649 0.88261253 0.039012849
-0.086542785 0.17163615 0.66995859 -0.34710032 0.2307559 0.90899563 0.024991417
-0.082448803 0.17263326 0.67175347 -0.49703267 0.18817118 0.84708333 0.032102223
-0.078840606 0.17363907 0.67433882 -0.55615807 0.096485689 0.82545668 0.025545156
-0.084885217 0.17587948 0.66937077 -0.49658278 0.53387177 0.68438768 0.062113773
-0.081927799 0.17710091 0.67121863 -0.57986736 0.46573216 0.66846645 0.055901669
-0.078228638 0.17773744 0.67361468 -0.55961823 0.40586054 0.72256809 0.029389946
-0.074897155 0.17988989 0.67473882 -0.56953955 0.55016673 0.61068916 0.059802603
-0.080327563 0.17987017 0.67104316 0.54564285 -0.59189206 -0.59324336 0.056875344
-0.077207699 0.18104011 0.67229044 0.4818998 -0.70604211 -0.51891917 0.057845674
-0.072391301 0.18333644 0.6719774 0.47523347 -0.83708692 -0.27099574 0.060278669
-0.069716886 0.18455152 0.67206001 0.45565885 -0.87453449 -0.16602553 0.039242655
-0.066364303 0.18595436 0.67197424 0.38597104 -0.92244875 -0.010708787 0.010524319
-0.061768964 0.18751295 0.67082459 0.30400574 -0.94334424 -0.13297442 0.023821166
-0.057353541 0.18792129 0.67300844 0.20820236 -0.97061235 -0.12067904 0.023821199
-0.052681666 0.18876553 0.67273724 0.35505396 -0.88186711 -0.31023705 0.053371079
-0.048863117 0.19048545 0.67433989 -0.47785148 0.66287822 0.57641172 0.050372768
-0.050305758 0.19172865 0.67016923 -0.59115267 0.55352914 0.58663791 0.037595179
-0.04815365 0.19279893 0.673096 0.65188223 -0.4261283 -0.6272673 0.029120479
-0.04728879 0.19750462 0.67160136 -0.6954937 0.17060611 0.69798428 0.020280521
-0.044608645 0.19852097 0.67452163 0.69953537 -0.22520912 -0.67818224 0.010407237
-0.050661117 0.20405087 0.66910052 -0.5637573 -0.026293306 0.82552189 0.0086578494
-0.046742272 0.20239474 0.67136872 -0.64251035 0.027297113 0.76579064 0.019591907
-0.043678336 0.20273234 0.67360556 -0.64978445 0.068409704 0.75703388 0.022422729
-0.050289698 0.2084956 0.66995025 -0.59477067 0.067735568 0.80103666 0.016562343
-0.047358122 0.20780627 0.67175901 -0.59370619 0.0066047623 0.80465484 0.011952132
-0.043924589 0.20769247 0.6738131 -0.64967477 0.0018038289 0.76021016 0.011009376
-0.050269045 0.21105672 0.6694327 -0.55499351 0.25286648 0.79249024 0.030503431
-0.046867456 0.21242072 0.67144644 -0.61167407 0.3139849 0.72613245 0.027748547
-0.044073515 0.21288444 0.67342967 -0.66568607 0.26151183 0.69890887 0.028861342
-0.045872062 0.21525876 0.67009616 0.62934595 -0.48323834 -0.6086086 0.028025871
-0.042525306 0.21754812 0.67156297 0.72833931 -0.44662887 -0.51965803 0.017612737
-0.040056702 0.21888363 0.67455137 0.72916561 -0.41234118 -0.54616141 0.024639664
-0.040638048 0.22175705 0.67224777 0.70152682 -0.45258647 -0.55047762 0.02436604
-0.039477482 0.22189546 0.67335492 0.67545068 -0.49694479 -0.54480481 0.027914675
-0.034326632 0.22577424 0.67409849 -0.51796776 0.58530784 0.62379819 0.025329636
-0.039568454 0.22548877 0.67111474 0.64021683 -0.53408051 -0.55215979 0.02917718
-0.036784094 0.22669874 0.67214704 0.55264419 -0.59016842 -0.58846045 0.024548396
-0.033090595 0.22818257 0.67291892 -0.52221483 0.58282954 0.62257642 0.020808904
-0.034800276 0.22998185 0.66946864 0.54931033 -0.61665481 -0.56391054 0.028695516
-0.031093305 0.23170392 0.67141891 0.61646688 -0.52618647 -0.58574432 0.016486691
-0.028489485 0.23382458 0.67299938 0.65079772 -0.54870373 -0.52477288 0.010530392
-0.02968251 0.23523048 0.66967314 0.63119316 -0.54155964 -0.55525517 0.013706988
-0.026485462 0.23713307 0.67136604 0.64165592 -0.51909089 -0.56464356 0.022678839
-0.023158098 0.23906438 0.67269528 0.6544131 -0.44148719 -0.61386693 0.026341261
-0.02058704 0.24015534 0.6748938 0.66573644 -0.4780876 -0.57291114 0.027902881
-0.021923507 0.24212889 0.672104 0.65374053 -0.42600161 -0.62541664 0.028497741
-0.02037796 0.2417413 0.67415231 0.66484916 -0.46591869 -0.58386248 0.02713638
-0.02404641 0.24563569 0.66889739 -0.63763648 0.3090671 0.70561832 0.023112321
-0.02150506 0.24623178 0.67092222 -0.61526763 0.32883412 0.71645927 0.02535042
-0.017846135 0.24789071 0.67269152 0.65902227 -0.41128248 -0.62971127 0.027754407
-0.014989544 0.2497136 0.67413503 0.74470258 -0.39535394 -0.53769261 0.022287371
-0.020275107 0.25021836 0.6695435 -0.57365173 0.42132849 0.70242864 0.019394822
-0.016893089 0.25218448 0.67077518 0.67418492 -0.34171161 -0.65475786 0.0216315
-0.01405246 0.25285578 0.67330348 0.78808355 -0.28685868 -0.5446434 0.017890381
-0.015629759 0.25669268 0.67060155 0.72447562 -0.22809331 -0.65046787 0.024596743
-0.013828696 0.25785476 0.67326403 0.81477958 -0.18314496 -0.55008382 0.011492013
-0.014616991 0.2614446 0.6703198 0.79793102 -0.29845619 -0.52366972 0.031650525
-0.013743774 0.26262876 0.67178518 0.80642033 -0.31009763 -0.5035134 0.014655665
-0.011179189 0.26768893 0.67219496 0.71587515 -0.38174489 -0.58463115 0.043162853
-0.0089124599 0.26902926 0.67374015 -0.58139628 0.45184126 0.67662233 0.035437007
-0.010659138 0.27225208 0.67067975 -0.6165691 0.37822938 0.69049627 0.023402682
-0.0076018171 0.27268443 0.67210114 -0.5331127 0.40023658 0.74538684 0.017740592
-0.0035448042 0.27329418 0.67382878 -0.61718357 0.37868765 0.68969566 0.015873201
-0.0097295903 0.27532682 0.66970927 -0.59274566 0.3224439 0.73802608 0.021497121
-0.0067633069 0.27712858 0.67056584 -0.55531055 0.30180874 0.77494627 0.022922665
-0.0028826529 0.27732617 0.67254615 -0.66566491 0.28955832 0.68778354 0.024328129
-0.0060753487 0.28216112 0.66966236 -0.5289945 0.29750276 0.79476845 0.022177899
-0.0024400132 0.28196949 0.67177558 -0.59001231 0.28114718 0.75686306 0.026673904
-0.0056278459 0.28633276 0.66924506 -0.3544417 0.36099046 0.86258739 0.030613443
-0.0017863873 0.28715104 0.66996908 -0.38470057 0.49369776 0.77991539 0.030789834
-0.0085561862 -0.15176235 0.67600006 -0.77138728 -0.50636542 -0.38542926 0.038210124
-0.18844397 -0.026933363 0.67771834 0.80979568 0.3912155 0.4372429 0.014138943
-0.18858621 -0.023058748 0.6773386 0.905146 -0.14156811 0.40083563 0.011370519
-0.18796137 -0.019699646 0.6779415 0.96724874 -0.032578632 0.25173107 0.002122805
-0.18537399 -0.0075123976 0.6770851 0.88289106 -0.37732661 0.27951393 0.0013232994
-0.17502518 0.032501154 0.67607975 0.92696172 -0.23942201 0.28882363 0.0008258684
-0.17487712 0.032928083 0.67592865 0.93480134 -0.2126423 0.28448156 0.00095373584
-0.17226201 0.044078875 0.67900008 0.92381865 -0.35824707 0.13497475 0
-0.0018844123 0.044028223 0.67799115 0.96070671 0.23677121 -0.14485188 0.010262081
-0.0050882734 0.052691244 0.67599922 -0.15296683 0.16347632 0.97461617 0.00070887321
-0.003511725 0.052689753 0.67599022 0.14733592 0.19708508 0.96925205 0.00070887321
-0.0052087088 0.059747919 0.6749016 0.96979356 0.22849603 -0.085381828 0.012747337
-0.0045289183 0.059507117 0.6750052 0.012026099 -0.044059072 -0.99895656 0.018225368
-0.16640605 0.064115524 0.67699397 0.9002592 -0.30505738 0.31060159 0.0009617036
-0.0054496569 0.060656875 0.67492694 0.95240819 0.28101036 -0.11811758 0.015237428
-0.0053080171 0.060229488 0.67510331 0.9668591 0.24157803 -0.082604356 0.012747337
-0.16518164 0.069626756 0.67903996 0.89137167 -0.3331624 0.30734241 0.0017865271
-0.16503525 0.069807738 0.67887151 0.89020979 -0.33327594 0.31056994 0.0014114012
-0.16485851 0.070455968 0.67915148 0.89217317 -0.33110428 0.3072409 0.0011900946
-0.16327597 0.072310008 0.67671341 0.88612431 -0.33510491 0.32013813 0.0010637253
-0.16067094 0.078432001 0.67604274 0.86284357 -0.39130464 0.31997135 0.0014292641
-0.15922213 0.082432009 0.67696303 0.82452244 -0.46427855 0.32343188 0.0024423681
-0.15545735 0.087898418 0.67709053 0.75026011 -0.56450254 0.34416083 0.00095983263
-0.15363637 0.089572072 0.67595148 0.73459059 -0.58110529 0.35027596 0.0011746029
-0.15236591 0.091548614 0.67670989 0.72104895 -0.59763497 0.35060069 0.00099820609
-0.14760602 0.098146848 0.67842501 0.73364121 -0.57283968 0.36554796 0.0030181801
-0.018556416 0.09629038 0.67600983 0.80618608 0.49075344 -0.33049217 0.0044475379
-0.1418896 0.1033069 0.6758557 0.70502383 -0.49969763 0.50323325 0.021216113
-0.030262636 0.10376479 0.67594695 -0.17957485 -0.86649531 0.46576685 0.015703751
-0.025899036 0.10261799 0.6751833 -0.34016085 -0.83914548 0.42441189 0.025552854
-0.023984104 0.10157659 0.67501581 -0.47354147 -0.78957903 0.39028633 0.029976534
-0.14141797 0.10774407 0.67808765 0.67565936 -0.19472817 0.7110312 0.039437603
-0.13820539 0.10820376 0.6753695 0.59776807 -0.34083059 0.72560859 0.037461121
-0.033626582 0.10595179 0.67902488 -0.4592711 -0.7618767 0.4567427 0.022340668
-0.18139772 0.11557221 0.67924798 -0.08553122 -0.93993092 -0.33047581 0.020406323
-0.17812808 0.11542578 0.67914957 0.096782371 -0.95508051 -0.28009707 0.028627608
-0.14463957 0.11491796 0.6795333 0.60533303 0.097482666 0.78998041 0.010500126
-0.14176746 0.11270685 0.67777705 0.57759303 0.048115276 0.81490564 0.018448144
-0.13725138 0.11271036 0.67573559 0.44237509 -0.044480737 0.89572638 0.029107114
-0.13363548 0.11318131 0.67427033 0.40465096 -0.17756568 0.89706635 0.042937264
-0.040888377 0.11241876 0.67630982 0.68935031 0.68827659 -0.22599001 0.006741079
-0.039377701 0.11094874 0.67773825 0.71212888 0.63149035 -0.30674484 0.0060772132
-0.19990651 0.12024014 0.67723185 -0.38671693 -0.88952482 -0.24330156 0.0068047852
-0.1966019 0.1189631 0.67694753 -0.25043124 -0.91094035 -0.32782897 0.020810803
-0.19255586 0.11849039 0.67660773 -0.063169211 -0.92074698 -0.38501254 0.019207899
-0.18718788 0.11862203 0.67665768 -0.12258094 -0.89457685 -0.42977452 0.013511629
-0.18239683 0.1170871 0.67654628 -0.15767394 -0.88572049 -0.43662122 0.014929458
-0.17777269 0.11659248 0.67628032 0.18378711 -0.90610778 -0.38103938 0.043548562
-0.17366581 0.11832657 0.67701304 0.44080493 -0.8369481 -0.32435927 0.028642146
-0.14469457 0.1158384 0.67945874 0.59637415 0.064481601 0.80011249 0.011958024
-0.14212544 0.11755671 0.67751509 0.57399738 0.049759235 0.81734389 0.015458657
-0.13857758 0.11718685 0.67518353 0.42425427 0.051620256 0.90407062 0.019609923
-0.13389909 0.11557048 0.67412776 0.30297917 -0.007814385 0.95296514 0.022557877
-0.046782658 0.1185023 0.6755566 0.72706074 0.68652683 -0.0079735275 0.0029759663
-0.044403683 0.11600517 0.67604589 0.7137264 0.61381781 -0.33737567 0.00247418
-0.20541243 0.12399392 0.67606205 -0.50260496 -0.83150798 -0.23660672 0.0074414453
-0.20385538 0.12243371 0.67764086 -0.49363986 -0.84225601 -0.21662071 0.0067672771
-0.19780044 0.12003967 0.6757018 -0.28796011 -0.88703132 -0.36090776 0.012958873
-0.18704282 0.11951213 0.67485511 -0.079937637 -0.87072104 -0.48523688 0.017051384
-0.1711095 0.12097289 0.67613953 0.56313872 -0.76480097 -0.31297645 0.024355097
-0.16844912 0.12336185 0.67663723 0.58147758 -0.7636894 -0.28046808 0.027456976
-0.141822 0.12221073 0.67758363 0.54688197 0.065368697 0.83465385 0.028725145
-0.13887823 0.12076528 0.67490697 0.4236581 0.018643685 0.90563029 0.022498427
-0.1333012 0.12413526 0.67361659 0.29574165 0.047214396 0.95410043 0.017086219
-0.051024802 0.1234353 0.67624032 0.74277675 0.5991661 -0.29880205 0.012318865
-0.04932975 0.12085386 0.67512894 0.72211659 0.62374723 -0.29914373 0.00869093
-0.21701971 0.12857021 0.67633015 -0.31174305 -0.94789815 -0.065615214 0.0037112273
-0.21220008 0.12761891 0.67617148 -0.3720004 -0.92539334 -0.072545573 0.0093516586
-0.2092405 0.12676843 0.67492038 -0.40163535 -0.90200639 -0.15834604 0.012483478
-0.16611792 0.12546404 0.67595816 0.52770418 -0.80473638 -0.27189648 0.025012838
-0.16228843 0.12755398 0.67640895 0.45956156 -0.8639251 -0.20600137 0.011698709
-0.15875126 0.12937747 0.67700493 0.38721633 -0.84988445 -0.35743526 0.047805607
-0.15049714 0.12916358 0.67892981 0.1077909 0.62659067 0.77185827 0.03259483
-0.14700004 0.12830463 0.67829573 0.26373526 0.51859355 0.81332922 0.014758194
-0.14239292 0.12821628 0.67658573 0.34489399 0.39961609 0.84932625 0.04250275
-0.13863243 0.12886493 0.67493165 0.28124118 0.3192181 0.90498793 0.037124641
-0.13412586 0.12608501 0.67395633 0.28912985 0.052622385 0.95584244 0.02149163
-0.055739313 0.12863249 0.67499155 -0.5914976 -0.64557564 0.48307627 0.010544331
-0.053229202 0.1274624 0.67703581 0.7076844 0.58147901 -0.40132892 0.01263771
-0.22540747 0.13256289 0.67599845 -0.46271786 -0.88418359 -0.064121284 0.0021266583
-0.22164856 0.13061498 0.67599404 -0.42624056 -0.90192264 -0.069674723 0.0026727656
-0.15623723 0.13032927 0.67793936 0.25249511 -0.80649149 -0.53461921 0.066531487
-0.15237816 0.13189824 0.67673856 0.1324262 -0.75392473 -0.64347553 0.061553724
-0.14835392 0.13199773 0.67580444 0.13668907 0.61448461 0.77699727 0.034029361
-0.14277349 0.13073877 0.67507708 0.23925936 0.4747586 0.84697062 0.016189564
-0.13863268 0.13072793 0.67403239 0.28336489 0.4182221 0.86301482 0.029091414
-0.072073296 0.13454285 0.67485917 -0.34421977 -0.43139946 0.83391082 0.02874076
-0.067035452 0.13493659 0.67687047 -0.32470709 -0.52803916 0.78469098 0.040764656
-0.062234767 0.13363802 0.67678547 -0.3123832 -0.69983053 0.64238149 0.027142776
-0.057539724 0.13191453 0.67772007 -0.50566417 -0.70852649 0.49223363 0.0075646602
-0.054833189 0.13097727 0.67917943 0.62338871 0.65647173 -0.42477223 0.016145613
-0.23865095 0.13974757 0.67700022 -0.62926537 -0.042039964 0.77605265 0.0031493809
-0.15151189 0.13436832 0.67460567 0.12626995 -0.74977404 -0.64953429 0.050290596
-0.07539621 0.1371101 0.67403394 -0.43413645 -0.27058136 0.85925043 0.010774068
-0.072266527 0.1374471 0.67619389 -0.41285422 -0.29678416 0.86108685 0.03141962
-0.067629412 0.1374786 0.67835283 -0.40734243 -0.33735278 0.84868443 0.050594594
-0.064279422 0.13632777 0.67911208 -0.43856221 -0.5090853 0.7406047 0.061414458
-0.23867062 0.14065695 0.67699999 -0.36451897 0.019558519 0.93099052 0.0056681456
-0.076648965 0.14366163 0.67512298 -0.4238216 -0.26218677 0.86696792 0.0083894907
-0.072362542 0.14261571 0.67666095 -0.41040218 -0.22143254 0.88461161 0.015961409
-0.06768389 0.14214502 0.67845261 -0.47736222 -0.1858408 0.85882974 0.022090707
-0.064958341 0.14106023 0.67993712 -0.53646916 -0.24406029 0.80785853 0.040402755
-0.079693928 0.1490777 0.67530262 -0.46466658 -0.17901911 0.86720073 0.017924961
-0.077530861 0.14769396 0.67641342 -0.45940536 -0.2155707 0.86167049 0.011133586
-0.072937816 0.14753127 0.67807901 -0.3605198 -0.22752726 0.90457547 0.010446902
-0.067936316 0.14572003 0.67932403 -0.4593409 -0.20830768 0.86348933 0.021061858
-0.080760367 0.15321521 0.67501086 -0.53315163 -0.045380227 0.84480172 0.017157217
-0.077673294 0.1523543 0.67724162 -0.49320507 -0.11196048 0.86267817 0.018754397
-0.072952107 0.15256883 0.67857403 -0.41168308 -0.19987378 0.88913864 0.012412971
-0.07027401 0.15309702 0.6800822 -0.46983749 -0.21608174 0.85589802 0.013157227
-0.080984749 0.15710796 0.67541832 -0.55161673 0.078805752 0.83036661 0.025712892
-0.077655211 0.1574326 0.6777963 -0.50684315 0.090564303 0.85726786 0.040845159
-0.073857099 0.15591942 0.67936128 -0.48249358 -0.074287005 0.87274361 0.034682196
-0.080039397 0.16171452 0.67404461 -0.53770614 0.20654686 0.81744146 0.030766869
-0.076782934 0.16196986 0.67595667 -0.574498 0.20086791 0.79347599 0.036041968
-0.073722176 0.16298862 0.67808878 -0.64825994 0.16103803 0.74419469 0.032663956
-0.076059915 0.16798037 0.67536402 -0.62487227 0.030247761 0.78014082 0.037624188
-0.073183261 0.1673205 0.67796576 -0.67479432 0.0028991723 0.73800015 0.031189447
-0.079768337 0.17058003 0.67347461 -0.49644369 0.072353289 0.86504835 0.026800072
-0.076698944 0.17212911 0.67571968 -0.63926214 0.027329966 0.76850307 0.029050954
-0.073912159 0.17258064 0.6784457 -0.6728611 0.077350162 0.73571384 0.028706187
-0.075810276 0.17739046 0.67547554 -0.57074982 0.39724222 0.71863991 0.034099173
-0.072886571 0.17810404 0.67744136 -0.67213446 0.35135981 0.65175271 0.034844268
-0.070489988 0.17898829 0.6796208 0.73961687 -0.31900889 -0.59262145 0.040437426
-0.075134099 0.18041469 0.67411768 -0.55043811 0.61711776 0.56230199 0.053652156
-0.071822055 0.18170516 0.67612916 0.66438937 -0.6039356 -0.44028232 0.055373788
-0.0674785 0.18523104 0.67783332 0.63144195 -0.75105482 -0.19286695 0.048715211
-0.062196702 0.18750584 0.6762566 0.27759746 -0.96005207 -0.035209611 0.0088822367
-0.058301918 0.1881758 0.67899996 0.20901586 -0.97790831 -0.0027660402 0.0015503663
-0.051566895 0.18865108 0.67534512 0.32017469 -0.92755002 -0.19271503 0.044662826
-0.047932066 0.18945989 0.67690951 0.46443528 -0.8289395 -0.31170371 0.077043712
-0.044743296 0.19075568 0.6782397 0.51189274 -0.76961422 -0.38165396 0.092326626
-0.045991257 0.19119857 0.67594272 0.57471305 -0.67381889 -0.4644061 0.065594606
-0.043512274 0.19286835 0.67744857 0.65879172 -0.50647575 -0.55630547 0.048528429
-0.044317082 0.19456154 0.67580134 0.68674976 -0.41240633 -0.59857816 0.034978032
-0.042246126 0.1973931 0.677212 0.68195719 -0.28329232 -0.67429948 0.014411861
-0.039492842 0.19926229 0.67918402 0.68315911 -0.20927678 -0.69964051 0.022106709
-0.041036543 0.20248236 0.67596465 0.71894139 -0.10950553 -0.6863904 0.017019546
-0.039210625 0.2020022 0.67844552 0.73030812 -0.090718605 -0.6770674 0.022980185
-0.041213822 0.20765051 0.67616147 0.73178428 0.019515295 -0.68125683 0.0060356539
-0.039898217 0.20723668 0.67775148 0.76379246 0.039964739 -0.64422345 0.0087337466
-0.041544531 0.21260741 0.67638785 0.74862546 -0.16449845 -0.64226174 0.019058598
-0.039781619 0.21266101 0.67858404 0.81499159 -0.1383633 -0.56271154 0.010322876
-0.040891167 0.21609783 0.67562348 0.76440454 -0.30202276 -0.56962085 0.01988193
-0.038296349 0.21773189 0.67813361 0.74002647 -0.39909223 -0.54137439 0.019850736
-0.03680931 0.2222448 0.67582977 0.57384688 -0.53444058 -0.62054253 0.032732505
-0.033550639 0.22332966 0.67744869 0.55752033 -0.63842237 -0.53064859 0.025047736
-0.029477974 0.22534443 0.67921203 0.62952274 -0.63684535 -0.44511703 0.014530292
-0.03472491 0.22535719 0.67437232 0.49310911 -0.61037064 -0.61991215 0.028512795
-0.031105557 0.22562872 0.67651272 0.56775123 -0.62376457 -0.537193 0.016943105
-0.028511867 0.22788294 0.67717743 0.65543842 -0.54652679 -0.5212571 0.016631344
-0.027136076 0.23183076 0.67628103 0.6829204 -0.48998415 -0.54178894 0.0082506798
-0.024390228 0.23345137 0.67827576 0.63105011 -0.56715065 -0.52925974 0.013218165
-0.024940467 0.23569551 0.6750471 0.61721545 -0.561463 -0.55118454 0.014254842
-0.021817457 0.23680982 0.67718422 0.61067963 -0.55970246 -0.56018174 0.017341986
-0.019016992 0.2383607 0.67831206 0.6740942 -0.49065959 -0.55213243 0.020307289
-0.019441318 0.24350323 0.67408109 0.67968768 -0.42641211 -0.59682274 0.022684837
-0.017599009 0.2428124 0.67701161 0.73542923 -0.42736772 -0.52583337 0.021636583
-0.015935961 0.24693134 0.67631406 0.74898607 -0.44322377 -0.49251655 0.02307651
-0.013915816 0.24847709 0.67778212 0.7986142 -0.41385189 -0.4369691 0.016327778
-0.012090187 0.25257909 0.67673737 0.85436946 -0.2786518 -0.4386411 0.013562445
-0.011435836 0.25722039 0.67730373 0.826904 -0.22225015 -0.51656038 0.0080954805
-0.011088595 0.26257259 0.67620647 0.74666113 -0.36272803 -0.557607 0.02229318
-0.0081313988 0.26365894 0.67882514 0.58877242 -0.44729263 -0.67325801 0.025213622
-0.0050896192 0.26485699 0.67981154 -0.51323968 0.49161205 0.70349318 0.01522702
-0.010441086 0.26598397 0.67482418 0.68239379 -0.42286697 -0.59625685 0.025269562
-0.0071179997 0.26718211 0.6767776 -0.54827297 0.51229942 0.66101897 0.025169957
-0.0037008119 0.26808563 0.67849642 -0.51012152 0.54650211 0.66416222 0.021640083
-0.0053991894 0.27029446 0.67456472 -0.49929175 0.49237329 0.71293497 0.020538935
-0.001572213 0.27147067 0.67661041 -0.72861445 0.40747246 0.55053353 0.032133818
-0.00054044416 0.27770638 0.67547983 -0.92810202 0.16469364 0.33392009 0.024709078
-0.00021379982 0.28035828 0.67583686 -0.98050022 0.16342428 0.10914108 0.028120274
-0.18806207 -0.029635131 0.68098027 0.4645586 0.83649075 0.29063469 0.012216964
-0.18761277 -0.01299331 0.68026024 0.92123705 -0.22469579 0.31754383 0.0090328855
-0.18504034 -0.0038697689 0.68093795 0.89504582 -0.37048423 0.2482627 0.0011111279
-0.18292962 0.0017480417 0.68099999 0.91895121 -0.30693012 0.24763401 1.1826851e-12
-0.00036336316 0.019492798 0.68099999 0.9992649 -0.011800261 -0.036474336 0
-0.00036166227 0.021374596 0.68039989 0.99926579 -0.013122749 -0.03599567 4.5038195e-08
-0.17808194 0.026815241 0.68200898 0.92251551 -0.28922588 0.25556511 0.0013096312
-0.17610781 0.034427341 0.68095177 0.88783306 -0.3483744 0.30064556 0.0015277941
-0.17581883 0.035299797 0.68103784 0.92753989 -0.26625869 0.26225185 0.0013141035
-0.16970365 0.06095333 0.68400002 0.90586674 -0.30906835 0.2896243 0
-0.0069917315 0.065877013 0.68199211 0.29160583 0.53273612 -0.79445469 0.0091733998
-0.16354385 0.074606106 0.67991918 0.88509649 -0.34116876 0.31655654 0.0012742729
-0.1632635 0.075445108 0.68002111 0.8840186 -0.340996 0.31973878 0.0015149607
-0.16186698 0.081071422 0.68200922 0.86057854 -0.42101374 0.28662178 0.0023131792
-0.15770683 0.086605042 0.67996198 0.78582484 -0.53108567 0.31690276 0.0012697786
-0.15490681 0.092685886 0.68405515 0.74155098 -0.57629991 0.343483 0.0017957006
-0.15342201 0.093686722 0.6827659 0.72580189 -0.59122771 0.35165527 0.0013297331
-0.15062653 0.095676377 0.68111688 0.73220432 -0.57206786 0.3696149 0.002452153
-0.018471191 0.098865874 0.68199617 0.85672963 0.46695858 -0.21900696 0.012387916
-0.14654052 0.10279463 0.68256235 0.77341813 -0.31054333 0.5526185 0.023582153
-0.14410801 0.10408055 0.68005896 0.76107955 -0.31390974 0.56764305 0.032250907
-0.022161577 0.10314979 0.68121165 -0.63350785 -0.72233909 0.27729774 0.01370874
-0.019842478 0.10047327 0.68211704 0.78002143 0.6007117 -0.17524841 0.0095513221
-0.14650381 0.10756614 0.68315399 0.73609412 0.039313577 0.67573655 0.0071305814
-0.14417699 0.10708638 0.68089545 0.73973358 -0.095916569 0.66602868 0.029227825
-0.03652991 0.1094437 0.6802417 -0.75648814 -0.38528398 0.52847129 0.017159523
-0.032558016 0.10731657 0.68194968 -0.44936788 -0.76624018 0.45928696 0.017969487
-0.028451299 0.10636535 0.68258572 -0.41452622 -0.75169444 0.51295561 0.014878392
-0.024155702 0.1044612 0.68124074 -0.50998253 -0.79836291 0.32021004 0.01875959
-0.14722709 0.11274231 0.68240654 0.67218763 0.15992805 0.72290164 0.0082953433
-0.1446605 0.11193743 0.68015993 0.65524942 0.10808717 0.74763983 0.0077835233
-0.03698431 0.11039829 0.68009025 -0.69925719 -0.081000119 0.71026641 0.021101944
-0.19774918 0.11845718 0.68257177 -0.33925444 -0.92935717 -0.14560787 0.0059328172
-0.19225919 0.11755506 0.68027049 -0.14439847 -0.94808948 -0.28332925 0.00814653
-0.18748525 0.1169978 0.68155038 -0.136214 -0.9376663 -0.31973067 0.012774101
-0.18419388 0.11570653 0.68191272 -0.14189598 -0.95685655 -0.25355685 0.013505417
-0.1759087 0.116056 0.68201095 0.35262573 -0.9265694 -0.13085972 0.031036042
-0.1734813 0.11824477 0.68129051 0.49072233 -0.84952682 -0.19363828 0.026368069
-0.16733779 0.12080633 0.68412739 0.34207597 -0.7899279 -0.50891834 0.08019276
-0.16500053 0.12145497 0.68469363 0.24054283 -0.67647254 -0.69607764 0.091401793
-0.15658225 0.11910761 0.6853897 0.20875034 0.4766306 0.85395938 0.051886603
-0.15234584 0.11878881 0.68383461 0.37504131 0.34433892 0.86068273 0.029945645
-0.14782424 0.11747903 0.68179691 0.53468633 0.19535989 0.82215881 0.034449361
-0.14484107 0.11817458 0.67962325 0.54348314 0.0045432812 0.8394078 0.015265693
-0.20783135 0.12467211 0.68105286 -0.52668172 -0.83709013 -0.14794087 0.0044062086
-0.2026836 0.12091345 0.68197334 -0.49117905 -0.86205834 -0.12489438 0.0047282497
-0.17078945 0.12032935 0.68080431 0.52024287 -0.8091535 -0.27316278 0.031759866
-0.16730323 0.12217278 0.68205088 0.49186966 -0.75328231 -0.43661192 0.055121142
-0.164501 0.12314701 0.68346804 0.29812986 -0.69915146 -0.64985061 0.08708261
-0.15665181 0.12296369 0.68387258 0.14398265 0.46493503 0.87355846 0.040687133
-0.15233432 0.1227412 0.68255627 0.26784298 0.3602134 0.89359188 0.020434467
-0.14756724 0.12266607 0.6815657 0.40450034 0.25304085 0.87883437 0.028083839
